# 3D point list with one line of data per point:
#   POINT3D_ID, X, Y, Z, R, G, B, ERROR, TRACK[] as (IMAGE_ID, POINT2D_IDX)
# Number of points: 372, mean track length: 4.0836799929938259
14250 -0.37792367489760831 1.9479855407840718 3.7799789552697285 43 23 11 0.49480061557677874 17 2152 18 8397 19 8878 2 10059 1 10059 3 13464 4 12775 5 6274 6 6274 7 2781 4 10486 8 2781
14251 0.10626609110090834 3.3974302219869958 2.3890955691637923 37 11 0 0.089505318800058783 17 10286 18 8404 19 8555
14252 0.16802244206129327 3.6060981768160576 2.1905203480353599 80 56 38 0.94716608291314408 10 10208 11 10208 18 8413
14253 -0.78302007334513701 1.0906130460863972 4.5968580359029936 119 93 70 0.15421578413930329 17 1911 18 8446
14254 -0.8277075794514307 1.1247737682571459 4.5575854076566689 130 102 79 0.28254859250475389 17 1915 18 8447 19 9300
14255 -0.75834791716145611 1.2306516064146944 4.4574093872923761 55 36 26 0.4740927078904541 17 1920 18 8454 19 11092 2 12571 1 12571
14256 -0.75696014700560854 1.3081990306648228 4.3943786120252897 65 46 32 0.51226745963567832 17 7939 18 8458 19 11094
14257 -0.57569746670887301 1.4808966665918137 4.2311068667132785 93 66 47 0.45568274624342592 17 7943 18 8460 19 11015
14258 -0.60211814853488543 1.5144087516500173 4.1943797820144448 142 113 89 0.6972913048424304 17 7946 18 8463 19 11016 2 12398 1 12398 5 7596 6 7596
14260 -0.42915685394150982 1.9355039424136742 3.7947639540469931 53 34 21 0.39827604621193546 17 2150 18 8468 19 8938 3 11433 4 10487
14261 -0.88043156029219471 1.0147986046483926 4.668868256079941 85 59 44 0.43594973161090983 17 1907 18 8505 19 11125
14262 -0.89098548131666677 1.0498202137640038 4.6230302042151257 133 106 85 0.12578181656732865 17 1908 18 8506 19 11126
14263 -0.92148975302043146 1.0965590711050599 4.5850084481473461 147 114 83 0.46084743839713993 17 2023 18 8509 19 9413
14264 -0.92148975302043146 1.0965590711050599 4.5850084481473461 147 114 83 0.46084743839713993 17 2024 18 8510 19 9412
14265 -0.95342067907211581 1.1366837844336906 4.5423724885754986 55 30 15 0.25542781711682921 17 2025 18 8511 19 11177 7 6664 8 6664
14266 -0.86628407199056146 1.376891062526165 4.3239620249672086 47 27 18 0.37302057202438083 17 2130 18 8515 19 11128
14267 -0.75645596565487794 1.3991468461797523 4.306732851582411 79 60 46 0.41521494176214507 17 2033 18 8516 19 9225
14268 -0.73754904145092348 1.6843476716040362 4.0294601091647602 49 32 22 0.96520318927376658 17 8044 18 8520 19 11049 2 12399 1 12399 4 12984 5 6403 6 6403 7 2857 8 2857
14269 -0.5887000110305548 1.8904061787684983 3.8354166142928099 44 27 16 0.7256289083509494 17 2248 18 8522 19 10976 2 12344 1 12344 3 13559 4 12821 5 6275 6 6275 7 5389 8 5389
14270 -0.60797263328901452 1.9217325264949749 3.8053443205667241 24 7 2 0.34931401058141337 17 2250 18 8523 19 9025
14271 0.1387520931328394 4.257266181980218 1.5884827204117995 65 46 33 1.5194059281568386 16 3733 17 8818 18 8544
14272 0.19691745468463731 4.4412589971228904 1.393650632567403 90 63 46 0.19426670869072191 17 10592 18 8550 19 8485
14273 -0.96334315108581381 1.1492477064369768 4.5311621476379909 145 115 88 0.2672220550698805 17 2026 18 8560
14274 -0.88607492378315578 1.4502934151522877 4.2450343395016708 62 42 31 1.0025808624441788 17 2132 18 8566 19 9420 2 10786 1 10786 5 6544 6 6544 7 2964 8 2964
14275 -0.88598634157184974 1.450720783110609 4.2446374594573602 62 42 31 0.77818725310269976 17 2131 18 8567 19 9421 5 6545 6 6545 7 2965 8 2965
14276 -0.80196653522633621 1.643468075853679 4.0623785720119603 59 37 24 0.63311949049681004 17 2234 18 8572 19 9232 2 10517 1 10517 4 11257 5 3911 6 3911
14277 -0.80219021614677977 1.6788313730278377 4.0311598637781012 41 27 18 0.3174446207455498 17 2235 18 8575 19 11051 18 8574 2 12456 1 12456 4 12985 4 12986 5 6361 5 6362 6 6361 6 6362 7 2790 8 2790
14278 -0.86025099779458336 1.6584150530848567 4.0501695994028353 65 47 33 0.30766308940566484 17 8042 18 8577 19 11101
14279 -0.66924268338070314 2.1097657503001321 3.6284569441708983 75 57 47 0.62445674556003206 17 2513 18 8581 2 10136 19 9127 1 10136
14280 0.082288426076922466 4.2692093709468386 1.55565817787452 51 27 15 0.70299455894975138 16 4028 18 8601 19 3026
14281 -0.93749694058118949 1.5698145556195944 4.1295026300213564 44 22 9 0.75146863029946231 17 2228 18 8623 19 9425 2 10790 1 10790 5 6446 6 6446 7 2863 8 2863
14282 -0.90933953471233386 1.7683208175914964 3.9411408739440108 88 68 55 1.307262408403838 17 2355 18 8627 19 11103 2 12517 1 12517 3 13745 4 10907 3 11989
14283 -0.94554048791731016 1.7792511904813169 3.9307027907943874 96 72 54 0.15205905914339535 17 2353 18 8628 2 12519 1 12519
14284 -0.86975579273007964 1.8645483409561194 3.8506973995749774 65 48 39 0.65015730637661795 17 8103 18 8629 19 11104 3 15408 4 13908 5 7456 6 7456 7 5353 8 5353
14285 -0.82910225482205757 1.8911473814112048 3.8289400713356043 38 25 18 0.38097525648475283 17 2363 18 8631 19 11055 2 10396 1 10396 3 13623 5 3550 6 3550
14286 -0.84210762664709204 2.0188738117987639 3.7107425626249628 35 16 8 0.93626742142157637 17 8174 18 8632 19 11059 2 12370 1 12370 3 13560 4 12726 5 3319 6 3319
14287 -0.85809315957437615 2.0528950550457283 3.6810942644099791 78 56 42 0.4230842283961409 17 2506 18 8634 19 9326
14288 -0.84898100580995661 2.1092237671990515 3.6300108069161179 45 26 11 0.78697693856328188 17 2680 18 8636 19 9245 3 6633 4 4846
14289 -0.85367417015410585 2.1302289592704824 3.6107087071839978 41 22 9 0.67662910797558384 17 8233 18 8637 2 12372 1 12372
14290 -0.85003916299282711 2.1562488425628321 3.5856944257653707 42 22 11 0.31982600309930809 17 2681 18 8640 19 9246
14291 -0.12761784715424682 3.9969898909775723 1.8227818562117886 62 44 29 0.95624037112721183 17 8811 18 8672 19 3151
14292 -0.035765888107143859 4.2998611335159733 1.5295998555660892 56 40 27 0.7479014400086772 14 14364 15 14364 18 8674 19 8565
14293 -1.2169595605710939 1.4241990328587242 4.2636577993233242 137 106 78 0.27526588083138087 17 2343 18 8693 19 9795
14294 -1.2169595605710939 1.4241990328587242 4.2636577993233242 137 106 78 0.27526588083138087 17 2344 18 8694 19 9796
14295 -1.0242408459480581 1.8513117361005369 3.8593237798834226 74 53 36 0.33472678864301197 17 8172 18 8702 19 11134 2 12520 1 12520
14296 -0.94104067124213664 1.9939733476451496 3.7303494426168959 124 98 76 1.5279720314346428 17 2671 18 8708 4 10498 5 3323 6 3323
14297 -0.94138968071527829 1.9946343222845404 3.7305059844548465 124 98 76 1.2237848515207723 17 2672 18 8709 2 12459 1 12459 4 10499 5 3322 6 3322
14298 -0.90797396264760788 2.1662342714228715 3.5724715605381219 40 23 10 0.53565742071944566 17 2683 18 8714 19 9329 2 10290 1 10290 3 13469 4 12673 5 3135 6 3135 7 2476 8 2476
14299 -0.92526555932728438 2.1716608636446852 3.5683066652278574 113 89 69 0.4353459459927233 17 2854 18 8715 19 9330 2 10292 1 10292 3 11358 4 10299 5 3134 6 3134
14300 -0.69401634196179895 2.9470324424881418 2.8149595747019656 36 19 9 0.95244322167761486 17 8544 18 8728 19 9036 2 3890 1 3890
14301 -0.25100032909518394 4.1446254086660979 1.6773368113529519 68 41 22 1.7622647119673112 13 12287 18 8743 19 3310
14302 -0.051713022462177738 4.5295419349526806 1.3083547992177174 133 106 79 0.81787551961916949 16 8740 17 10741 17 10740 18 8752 19 8566 2 2608 1 2608 3 1916
14303 -1.2618331563567633 1.4305899497221406 4.2604946680889322 156 130 105 0.70381058676279895 17 2341 18 8772 5 4223 6 4223
14304 -1.1080001640283259 1.9067877274768017 3.8101264042552052 50 31 17 0.16193483434575007 17 2660 18 8782 19 11183
14305 -0.7936543669306384 2.7625636235009399 2.9895576659497327 21 8 0 0.50619661498910484 17 3283 18 8797 19 4455
14306 -0.60367817322384931 3.2813962486932677 2.5039571300556278 63 40 24 0.39241457331915969 17 8693 18 8808 19 8957
14307 -0.60571697182500917 3.3755052764556273 2.3940075118186828 121 93 71 0.66921803684177872 17 8695 18 8813 19 4003
14308 -0.56433553245840362 3.5330578245476536 2.2534681770920071 64 40 28 1.1469472795058044 17 8801 18 8814 19 8889 2 3485 1 3485
14309 -0.60161163122971006 3.5505738134341329 2.2395790305419099 117 87 63 0.80055130544630915 17 8918 18 8815 19 3805
14310 -0.36510154929656441 3.9787823527435702 1.8352666306159076 63 40 26 1.226176936723625 13 9816 17 5511 18 8821 19 3483 2 3056 16 10230 1 3056
14311 -0.090398578965274312 4.7507701757587144 1.0907982402068293 73 50 36 0.67058813373099035 12 11544 18 8831 19 3036
14312 -1.2731596495261912 1.6836173383991113 4.0137795759561996 127 97 73 1.4172590763671464 17 2647 18 8860 19 9804 5 3659 6 3659
14313 -1.2400643136844403 1.9214876294191428 3.7879192504490589 44 27 17 0.51253590967685625 17 2834 18 8868 19 11260 3 13746 4 12829 5 3333 6 3333 7 2480 8 2480
14316 -1.144684631509858 2.1962729711940461 3.5417928490504731 61 35 18 0.25006343024896366 17 3035 18 8878 19 9573
14317 -1.0925802240339821 2.4381569955963043 3.2989143275204813 108 83 62 1.2476776948000221 16 1831 19 5266 2 5334 1 5334 3 5730
14318 -1.095649212951527 2.4501379049462941 3.2941909410680124 35 20 13 0.25958896851474011 17 8459 18 8886 19 9450 2 10304 1 10304 3 11197
14319 -1.0510594786585248 2.5431205028306123 3.2050564365338774 27 14 6 0.39887148479203316 17 8529 18 8888 19 11147
14320 -0.72876819562850259 3.540711040836253 2.2448107632419636 40 21 7 0.50294522589665369 17 9023 18 8907 19 4229 2 3632 1 3632
14321 -0.6108739454337071 3.7956245890205174 2.005467296527407 38 18 6 0.74551965658392105 17 9159 18 8909 19 8895 2 3365 1 3365
14322 -0.34980842222119479 4.3739605776163328 1.4504173393081474 127 101 78 0.21198867623527026 16 10418 18 8917 2 2907 1 2907
14323 -0.3139934021343459 4.4430798011721269 1.3904346659896285 133 104 86 0.53333299834977754 16 8876 18 8919 19 3320
14324 -0.30035381749374102 4.5487279278914441 1.2858389493592743 100 70 51 0.2489512144788604 12 4134 18 8923 19 3329
14325 -0.30021996493100533 4.5494111823241834 1.2861934570220608 100 70 51 0.32580287496564869 16 9046 18 8924 19 3328
14326 -0.36040710581861057 4.5462183973083015 1.2858817602268025 127 100 82 0.60355140841599264 12 9264 18 8925 19 8755 13 12492 2 2767 1 2767
14327 -0.19032652903103142 4.8501054264394154 0.99337732907014509 55 35 25 0.76959992584213432 12 11536 18 8928 19 3193
14328 -0.24605454495501164 4.7888516768236231 1.0528734904754029 122 92 68 0.93807966681676214 12 5034 18 8929
14329 -0.15780624407459976 4.9524211801070468 0.89706400492977556 60 40 26 0.1998362402386433 12 11617 18 8932 19 3196
14331 -1.4062125646684751 1.7576639296898644 3.9403593148998484 107 85 64 0.49326173863885109 17 2830 18 8963 4 11075
14332 -1.4153217409776548 1.7366474283993172 3.965298333198862 64 43 26 0.43228487488191086 17 2826 18 8964 4 11078
14333 -1.4153217409776548 1.7366474283993172 3.965298333198862 64 43 26 0.43228487488191086 17 2825 18 8965 4 11079
14334 -1.2955471358548294 1.866631484935837 3.8399923086341747 30 14 3 0.55662734266554847 17 8302 18 8969 19 11258 4 12883 7 2548 8 2548
14335 -1.2752757969701418 1.9518658246437539 3.7641241992434389 55 35 26 0.24682390172814628 17 8304 18 8971 19 11264 3 13748
14336 -1.3022623306729371 2.0164778758378943 3.7121933041798796 116 92 68 0.53331197394490437 17 3022 18 8973
14337 -1.3173338181272771 2.043617571821934 3.6852699969869347 133 106 86 1.1852970921556865 17 3024 18 8974 19 9812 2 10952 1 10952
14338 -1.3173338181272771 2.043617571821934 3.6852699969869347 133 106 86 1.1852970921556865 17 3025 18 8975 19 9813 2 10953 1 10953
14339 -1.2463541779584302 2.1142904390034873 3.6163562655774446 135 108 85 0.79206495966909263 16 1721 18 8978 19 11217 2 12585 1 12585 3 14738 4 12729 5 6121 6 6121 7 5216 8 5216
14340 -1.2999775462867491 2.097701658695613 3.6338673761495399 38 20 11 0.3192823025709699 17 3245 18 8980 19 9821 2 12587 1 12587 3 13631 4 10409
14341 -1.2451763055032745 2.1924016385678153 3.5443673919525565 126 101 81 1.1915556905206826 17 3252 18 8984 19 11222 2 12528 1 12528 4 4876
14342 -1.2202184114574555 2.2686587862174665 3.4687699913964845 57 37 26 0.52333400269038155 17 8457 18 8988 4 10178
14343 -1.2284475675976823 2.2992169932166799 3.4415772452191615 72 53 39 1.3709880873128171 17 3260 18 8990 19 11229 3 13476 4 10064
14344 -1.2284475675976823 2.2992169932166799 3.4415772452191615 72 53 39 1.3709880873128171 17 3261 18 8991 19 11228 3 13475 4 10063
14345 -1.139194473498454 2.4083002702929592 3.3347834852007261 107 81 59 0.50350946338352454 17 3269 18 8992 19 9582 2 10407 1 10407 3 5733
14346 -1.178824320335256 2.3987052770009512 3.3413809267216918 108 87 68 0.42920584970323417 17 3523 18 8996 19 5652 2 5675 1 5675
14347 -1.188627714958189 2.4465365682315277 3.2960090217698799 59 40 26 0.51039676043048421 17 8523 18 8999 19 9586 2 10417 1 10417 3 11202 4 4097
14348 -1.1396624546262271 2.51538039616005 3.2278440576343588 103 82 61 0.40048468990234898 17 8525 18 9001 19 9587 2 10307 1 10307
14349 -0.98333362876748376 2.8979851062834263 2.8600105045107012 43 29 18 0.43501591254114497 17 8681 18 9011 19 9350
14350 -1.0159836876348447 2.9305708666086718 2.8252946113099524 80 57 43 0.60341785237731771 16 2444 18 9013 19 9352 2 4477 1 4477
14351 -0.91212734746290858 3.0265112050658622 2.7274455951016003 41 22 15 1.2012029069316446 13 2381 18 9016 19 9258 2 4270 1 4270
14352 -0.82724942715659366 3.3659785778802314 2.4016690953999515 46 23 9 1.1493190285425219 17 4973 18 9025 19 4485 2 3777 1 3777
14353 -0.86380665023133096 3.347012947502094 2.416778485256911 69 46 32 1.4781168742775763 17 8911 18 9026 2 3895 1 3895
14354 -0.7718857881461415 3.4672705744372339 2.3110456695242139 25 8 1 0.35884897331214655 17 8915 18 9027 19 9044
14355 -0.79514031488701764 3.6080679431227534 2.1840264753839813 93 66 46 0.32994821589636603 17 10688 18 9033 19 9048
14356 -0.68275710727561278 3.8501942187431482 1.9508355545355061 38 19 5 0.60168018365199072 17 10724 18 9036 19 8963 2 3489 1 3489
14357 -0.68275710727561278 3.8501942187431482 1.9508355545355061 38 19 5 0.60168018365199072 17 10723 18 9037 19 8964 2 3490 1 3490
14358 -0.61156025134164149 4.1212310810439332 1.6890658237335998 56 33 20 0.33854682704345335 16 8714 18 9045 19 3821
14359 -0.39108029945503947 4.6354936242414171 1.1975487078019593 56 34 23 1.0735734405068686 12 4120 18 9061 19 3506
14360 -0.31322193655164965 4.8673866758639823 0.97548374734044418 82 61 42 0.82211710076122146 12 11532 18 9068 19 3336
14361 -0.27713900682394194 4.9049585320666607 0.94178001793258159 67 41 25 1.2866764900258403 12 11534 18 9070 19 3338
14362 -1.6199312200966933 1.34100573007248 4.3514487849557888 65 42 27 0.038579962702541895 17 2618 18 9088
14363 -1.476174153358915 1.7369693370209482 3.9636915960499604 71 48 34 0.86193913344900908 17 2823 18 9109 4 12991 5 6282 6 6282
14364 -1.4464957042855915 1.7561153892248171 3.9424157334526906 155 121 96 0.3105763509260881 17 2827 18 9113 4 12989
14365 -1.370324696607041 2.1185442165424382 3.6096862990874223 47 25 12 0.38580710083231412 17 3247 18 9125 2 10959 1 10959 3 11683 4 5183
14366 -1.2648223579274158 2.4103048539736589 3.3312628389373331 54 35 20 0.19731690832324866 17 8522 18 9127 4 9976
14367 -1.2902823802288967 2.3764124968627285 3.3609442663249047 47 28 14 1.5649211942167831 17 3521 18 9128 2 6082 1 6082 4 4106 3 6028
14368 -1.2669428964196179 2.467526238574635 3.2752290589704738 57 34 20 0.27372806005338679 17 3827 18 9129 19 9689 2 10536 1 10536 3 11206
14369 -1.2667918928387927 2.4673819846856722 3.2752368726908418 57 34 20 0.24313627833669588 17 3826 18 9130 19 9690 3 11207
14370 -1.1643608619629147 2.5992336151071633 3.1443273596885097 55 37 25 0.51321257355282679 16 2121 18 9134 19 9592
14371 -1.1342897738570281 2.6897317364525493 3.0604681434176477 79 60 45 0.38541077264147372 17 3844 18 9135 19 5292 2 5007 1 5007
14372 -1.1770504840186686 2.7049403982244815 3.0449053983539049 50 28 14 0.43920749390645863 17 8671 18 9136 3 10943 15 2790 14 2790
14373 -1.1399851191799755 2.7619847583794548 2.9871684126481948 109 81 58 0.39014010626574069 17 4186 18 9137 19 9459 2 10227 1 10227
14374 -1.0512149757197609 3.0018295945846325 2.751900277253339 51 34 26 0.54081034156955177 17 8789 18 9142 19 9354 2 10069 1 10069 3 4279
14375 -1.0832196998780594 3.0157708424587 2.7389994934874871 47 28 14 0.12888949414575848 17 8791 18 9144 19 9356
14376 -0.99848061609971872 3.2709042763904854 2.5034455637572965 53 31 17 0.67050485643197277 17 5398 18 9147 2 4065 1 4065
14377 -1.0222939714002039 3.2591808019805515 2.510849251877775 46 30 17 1.2603783152293204 17 9017 18 9149 19 9357 2 4068 1 4068 3 3884
14378 -0.9938178538278184 3.2837449389310929 2.4799070469530617 43 23 14 0.66571101514449926 17 5410 18 9150 19 11067
14379 -1.6382793164094194 1.6138092014116907 4.0782170957295003 91 65 40 0.1903191827127923 17 2984 18 9224
14380 -1.6155937857405342 1.7281759219738086 3.9677624887382574 49 29 20 0.67109787842388247 17 2997 18 9227 4 13044 5 3561 6 3561
14381 -1.6153864340189421 1.7287412315989392 3.968022066391566 49 29 20 0.75637679779510525 17 2998 18 9228 4 13045 5 3560 6 3560 7 2549 8 2549
14382 -1.588796734920418 1.7566200986436125 3.9410010833474978 63 41 27 1.0038600841662981 17 3000 18 9229 4 7147
14383 -1.4339543910866939 2.0601315983895852 3.6640145167729892 55 32 16 1.0128674222315406 17 3241 18 9238 4 5454
14384 -1.4692469263816477 2.1116080373433146 3.6164324084445609 53 30 16 0.49555597020877828 17 3515 18 9240 3 11693 4 5187
14385 -1.3205401516193158 2.4287557720513093 3.3121026188940945 110 83 63 0.71319842989328697 17 8603 18 9244 19 9826 2 10535 1 10535 3 11280
14386 -1.320848611751922 2.4290687625718128 3.3121597909038791 110 83 63 0.78987236754832435 17 8602 18 9245 19 9827 3 11279
14387 -1.3158844707033177 2.4396871693943161 3.301237522386665 61 39 28 0.53215957808037584 17 3822 18 9246 19 9829 3 11276
14388 -1.3068421034293434 2.5418053757183809 3.2024251815394544 119 97 81 0.33988654084327791 17 4158 18 9248 19 9695 3 5474
14389 -1.3068421034293434 2.5418053757183809 3.2024251815394544 119 97 81 0.33988654084327791 17 4157 18 9249 19 9694 3 5473
14390 -1.3437412388007393 2.5314110120096891 3.2113992998253882 130 106 89 0.33306952686226482 17 4155 18 9250 2 10540 1 10540 3 5748
14391 -1.277859989426771 2.679280411733636 3.0680905535592826 127 105 87 0.35617781482139532 17 4176 18 9256 19 9697 2 5709 1 5709
14392 -0.99957594539123551 3.5153157742349288 2.2627651633150765 50 23 6 0.090596025236167485 17 9277 18 9268 19 4769
14393 -0.95185677466062302 3.6279149828960255 2.1553727383234582 54 32 19 0.80378707483247891 12 8457 18 9272 2 9764 1 9764 3 3238
14394 -0.86006175888118275 3.8437709679857126 1.9504574093124138 84 64 53 1.2181541569811576 14 5032 15 5032 18 9277 19 9051
14395 -0.86340791077488233 3.9551721630949581 1.8451968389725675 54 36 24 0.43032364104559384 13 3586 18 9279 19 4258 2 3500 1 3500
14396 -0.82298313717741012 4.1328106887440406 1.6717986269361171 83 60 39 0.55544454232435725 16 8857 18 9282 19 9053 2 3374 1 3374
14397 -0.69581149719318813 4.3360509648484271 1.4826674298453011 52 33 21 0.44220407518295024 13 4565 18 9289 2 3229 1 3229
14398 -0.67663013361480517 4.401776768852856 1.4179905760137421 58 40 30 1.1207369775634046 12 9046 18 9293 19 3841
14399 -0.61224801744948254 4.5139831842402192 1.3072344165994831 124 94 67 0.37163760752664943 13 5550 18 9294 2 3066 1 3066
14400 -0.56896474837794309 4.6531338210178648 1.177448239714102 71 44 28 0.76871779957392639 13 10618 18 9297 19 3651
14401 -1.689937490547138 1.614740053992507 4.0744054957042986 125 97 77 0.54937244089754877 17 2986 18 9334 5 3669 6 3669
14402 -1.5751420866718422 2.0520560069616862 3.6731792532503889 104 77 58 0.57093685395397553 17 3511 18 9350 3 8379 4 5467
14403 -1.5503232015439385 2.1527764253832764 3.5761442537168824 142 113 84 0.43972269897347238 17 3804 18 9354 3 7507 4 4898
14404 -1.5593705691351529 2.1937803418842372 3.5293833773184109 127 97 69 1.5739747482933257 17 8600 18 9355 5 3062 10 15951 11 15951 6 3062
14405 -1.4417121382778713 2.327719416602803 3.4056260412304038 50 32 18 0.87623230003887853 17 3811 18 9358 3 6319
14407 -1.3828520653788949 2.7530438872742087 2.9971932990602523 120 94 71 0.50863147793255725 17 4906 18 9369 4 3344
14408 -1.2713487312407494 3.0135802304610961 2.7352238100204498 80 53 49 0.20605197099422171 16 2630 17 9009 18 9371
14410 -0.99290329825858159 3.7280060728359494 2.0625998064855739 65 42 28 1.6029462782752726 14 4734 15 4734 16 10267 18 9391
14411 -1.045937796484657 3.6939700572160161 2.0903502648348122 54 27 8 0.06848307919161023 14 4498 15 4498 18 9392
14412 -0.99150517940868288 3.8959337825689548 1.9007518865209037 104 78 61 0.19679635672788004 14 5340 15 5340 18 9395 19 9155
14413 -0.89674150208001147 4.0105096983562545 1.7953325165317064 40 20 9 0.43127372972584732 16 8712 18 9400 19 4261
14414 -0.71353598418596642 4.627080454538179 1.1977456052907576 77 51 40 0.56123908016716406 13 10487 18 9409 19 3856
14415 -1.7509102501799425 1.7232876030571345 3.9708759297182801 76 59 44 1.530990989128252 17 3215 5 7457 6 7457 7 6413 4 14535 8 6413
14416 -1.7422315848339487 1.8014789836138803 3.8974152665773811 64 41 27 0.69554674156640239 17 3473 18 9461 4 11086
14417 -1.677814717316529 1.9121159320777501 3.7908035797816049 58 34 17 0.73214039252574958 17 3488 18 9467 4 6236
14418 -1.7418947758754384 1.9525927979098159 3.7574733336990205 56 33 19 0.18508458510130024 17 3777 18 9470 4 5828
14419 -1.6782663569214595 2.0101846474269185 3.7067285238544296 47 22 3 0.77822836440046572 17 3783 18 9475 4 10626
14420 -1.7005875140522808 2.0488356394842162 3.6734498804726927 68 42 25 1.1133808262163785 17 3789 18 9479 3 8640
14421 -1.7029705596303801 2.0906633109000734 3.6294296599315037 49 26 17 0.36651362861896836 17 3800 18 9482 3 12015 4 5196
14422 -1.7029705596303801 2.0906633109000734 3.6294296599315037 49 26 17 0.36651362861896836 17 3801 18 9483 3 12016 4 5197
14423 -1.648651845390374 2.1374589799816195 3.589067489562598 146 118 93 1.0017898432196823 17 3803 18 9484 3 7942
14424 -1.6539846361021477 2.1919745154238308 3.5338764852923532 153 118 86 0.37800786917336815 17 4138 18 9486 3 11696 4 4901
14425 -1.5832413105395298 2.3780307858587557 3.3578334454703289 53 35 23 0.47505646481593128 17 4469 18 9489 3 6329
14426 -1.511955355990398 2.42293792829041 3.3173720221559129 109 89 70 0.5538511122090668 17 4149 18 9490 2 10817 1 10817
14427 -1.5763985087170671 2.4674226436485895 3.2692970013992184 43 20 12 0.54326194805412809 16 2114 18 9493 2 10975 1 10975
14428 -1.4397744080136741 2.6336115522257533 3.1129855379300206 63 43 32 0.63615325753756236 17 4487 18 9496 2 10541 1 10541
14429 -1.4397744080136741 2.6336115522257533 3.1129855379300206 63 43 32 0.63615325753756236 17 4486 18 9497 2 10542 1 10542
14430 -1.3616226334938537 2.9161607325016794 2.8402726025715004 57 35 21 1.0378701067490441 17 5368 18 9500 19 9842
14431 -1.2797196414732064 3.1319866775270819 2.6257354110691598 107 84 66 0.32176640378780569 17 9138 18 9502 2 4745 1 4745
14432 -1.2058795105755613 3.3589155913869515 2.3948630614464266 124 96 69 1.1672285517105001 10 2221 11 2221 18 9507
14433 -1.2696049835516974 3.345901447618532 2.4122652660354538 123 96 69 0.51952205653315564 16 3647 18 9508 19 9600 2 4499 1 4499
14435 -1.0746439267969365 3.9528620893916506 1.8443396532378771 33 14 4 0.25915551357545191 14 5677 15 5677 18 9525
14436 -0.98486065094865838 4.0052389112408147 1.7956135256045695 42 27 20 1.0616411518946323 14 6075 15 6075 18 9526 19 4530
14437 -0.98206119568313133 4.0300173379023336 1.7699242167898044 110 87 67 0.62816549526747578 16 8851 18 9528 19 9160 2 3649 1 3649
14438 -1.0036045713061745 4.0367216358213049 1.7657413869917915 142 114 88 0.56903512142214463 16 5660 18 9529 19 4532
14439 -1.0045889863323065 4.0351075594494858 1.7646108121646202 142 114 88 0.37455282075879937 14 6072 15 6072 18 9530 19 4531 2 3652 1 3652
14440 -0.94716283219288766 4.1692636394894986 1.636119112886903 130 103 76 0.40299840549598875 13 3928 18 9532 19 4541
14441 -0.80590198867886687 4.6260006483227016 1.1997109371660977 130 102 78 0.68407859901015422 13 10484 18 9544 19 4048
14442 -0.81472195991276497 4.6559614756311296 1.1726055568945166 77 51 33 0.91547937702080129 12 3647 18 9545 19 4049
14443 -0.69780884238752683 4.8540416057574278 0.98185303661048462 71 48 26 1.2254816293719557 13 7358 18 9550 19 3863 2 2921 1 2921
14444 -0.74399967221144292 4.8560279922759007 0.97749876987459683 46 26 14 0.88187225101260791 13 12570 18 9553 19 3868
14445 -0.74399967221144292 4.8560279922759007 0.97749876987459683 46 26 14 0.88187225101260791 13 12571 18 9554 19 3869
14446 -1.4701603513942514 2.8165946911127948 2.9303044221474535 141 113 89 0.38643523629138532 17 9004 18 9588
14447 4.9402304734974329 1.3758046825976225 4.4405377874278145 114 85 61 0.7571125356374222 17 9408 18 9608 19 11313 2 12726 1 12726
14448 4.8805240494511812 1.826926484536908 4.0277450146183646 134 100 72 1.3186280659151561 17 10776 18 9609 19 7043
14449 5.0697336213168338 2.0202339508786613 3.8018759428041484 108 80 59 0.38006306920879518 17 9449 18 9611 19 6974
14450 5.0697336213168338 2.0202339508786613 3.8018759428041484 108 80 59 0.38006306920879518 17 9450 18 9612 19 6973
14451 5.2186211361789372 2.2064310417325155 3.6649355775955139 133 102 81 0.49033666315100016 17 9451 18 9613 19 9922 2 12693 1 12693
14452 5.2186211361789372 2.2064310417325155 3.6649355775955139 133 102 81 0.49033666315100016 17 9452 18 9614 19 9923 2 12694 1 12694
14453 4.5136324169540547 2.2905211864540225 3.542867986111446 137 102 75 2.3023088518360684 16 6703 17 9521 18 9682
14454 4.3130018151002405 2.5201189382024252 3.325860823391098 145 114 86 0.15374082594305438 17 9544 18 9683 19 7158
14455 3.8912667889674681 1.8801074355617748 3.9370923658168402 92 69 54 0.35992138671900031 16 9211 17 9518 18 9723
14456 4.8679116112712997 4.9090205508699523 1.0516393950657328 81 55 41 0.51582207486048404 17 9694 18 9733 19 6999
14457 2.8588071579507655 0.3034928551046131 5.445405469837139 158 127 99 0.65752420965795411 16 9142 18 9759 19 10203
14458 4.5252304878240928 4.7139994185824481 1.2240815647220931 128 100 76 0.28460961265904966 17 10924 18 9778 19 7081
14459 4.3690639381037082 4.7293668755333993 1.2014568241918624 133 103 76 0.49277330018983001 17 9735 18 9781 19 7084
14460 4.5613861008067973 4.8235639760633253 1.1188465475262586 63 38 18 0.63484390563441673 17 10951 18 9782 19 304
14461 3.8895346994684457 4.2612345161843077 1.6308626076887975 106 83 65 0.62747178811694782 17 10944 18 9818 19 7259 2 8016 1 8016
14462 3.2658410431446665 2.53585281300197 3.2888515416072055 137 107 79 0.74820157158119693 17 10889 18 9842 19 10149
14463 3.4537842716960392 3.1847155098691484 2.6543195912847799 101 74 55 1.6765002184019984 17 9656 18 9847 19 10116 2 12758 1 12758
14465 3.7877373869318669 4.2386827032187977 1.6492114280054 132 100 75 0.37835204640925263 17 10943 18 9858 19 10039 2 8018 1 8018
14466 3.3343682159139063 4.1927826724865183 1.684699911089107 152 120 89 0.86016546013815509 17 10984 18 9895 19 7457 2 634 1 634
14467 3.7376725159192552 4.7946029516265822 1.1354936251484096 152 118 90 0.48495494438534431 17 9904 18 9899 19 7266
14468 3.7376725159192552 4.7946029516265822 1.1354936251484096 152 118 90 0.48495494438534431 17 9903 18 9900 19 7265
14469 2.0798623239699863 0.74221848414049307 4.9844791623922236 95 68 50 1.7778018290126238 17 558 18 9913 19 11521
14471 2.6473160691107438 2.3372627064542293 3.4771605342498497 144 111 80 0.94538732755078503 17 9648 18 9921 19 11471
14472 2.5704625269112338 2.7336844987401956 3.0721229201816529 129 101 77 2.0707968631083231 16 9419 18 9923 4 2939 5 3092 6 3092
14473 3.2937766810970408 4.4275042971983796 1.460990558534774 150 116 89 0.79255383722778894 17 9898 18 9939 19 7466 2 474 1 474
14474 3.465374388770293 4.9999198842036829 0.92497206045136482 66 43 27 0.11817722730223008 17 11072 18 9944 19 7401
14476 2.5140672895997302 3.8906979278415177 1.9573813825558282 139 104 76 0.15734552750519659 17 11021 18 10023 2 8459 1 8459
14477 2.3513477913487244 3.7736811354754178 2.0784455121058194 82 60 45 0.9677532330843831 17 11020 18 10066 19 10229
14478 2.0161545943557271 3.5148364153352247 2.3130974767769583 152 126 99 0.81019023071496454 14 14090 15 14090 18 10096
14480 1.9112154863761197 4.1993529741027826 1.655688529875623 122 92 67 0.48286040631272531 17 10084 18 10156 2 1369 1 1369
14481 1.8284956621759765 4.6590673286616244 1.2066733968608072 122 95 68 0.57237865175683855 17 10190 18 10182 19 10304 2 8474 1 8474
14482 1.8284956621759765 4.6590673286616244 1.2066733968608072 122 95 68 0.57237865175683855 17 10191 18 10183 19 10305 2 8473 1 8473
14483 0.45925481008767827 1.1053518380648308 4.6113945691870342 59 41 31 1.1029412557837772 17 7586 18 10196 2 12148 1 12148
14486 1.3269441605960264 3.5702819690583598 2.2484534349205374 85 59 44 0.38799714343533853 14 10545 15 10545 18 10212 19 10421
14488 1.5963159788017529 4.129741444778845 1.7182389633599571 125 102 84 1.0860914617071011 16 9861 18 10218
14489 1.8306700218900818 4.9770583932079608 0.91983956261430189 66 41 27 1.1332828550903198 17 10264 18 10226 19 1707
14491 1.7774240083160191 4.9658802835928633 0.91447811490773168 64 41 25 1.2611952868192231 16 3233 18 10229 2 8476 1 8476
14492 0.0080390786198947378 0.39747341841606271 5.271032914871582 115 89 71 0.37243954260704493 17 7504 18 10231
14493 0.19383796238922635 0.89548242336101014 4.8209132985680458 115 89 66 0.48063768293442671 17 9800 18 10239 2 13937 1 13937
14494 1.6722807664444761 5.2786929153470465 0.61308500764336904 83 62 45 0.77261260544667743 16 11196 18 10269 19 10310
14495 0.11978249253385484 0.79090832185985416 4.9022975838707765 145 116 88 0.37347834838038318 17 7582 18 10271 19 10834
14496 0.1797809730269922 1.2625741308086149 4.4568333109800786 48 29 15 1.1947669740190201 17 7654 18 10275 19 10797 2 12195 1 12195
14497 0.21800000466160138 1.4481136026618151 4.2724324518703689 74 52 38 0.7130563946782168 17 7716 18 10279 19 10767 7 6698 8 6698
14498 1.0548637311210958 3.6632679750193176 2.1636150473079026 81 59 38 0.58452515280826822 17 11180 18 10304 19 10472
14499 1.4043501519582871 4.6385091526613893 1.224150572518963 117 89 67 0.33811090139569133 17 11279 18 10308 19 10392
14500 1.3886795867342081 4.9394220690828883 0.94074200233887728 67 47 36 1.3446536780470679 17 11334 18 10310 19 10395 2 8603 1 8603
14502 -0.052234728509324597 0.76732516516146476 4.9316394962428642 131 106 83 0.81683666266033439 17 7579 18 10338 19 10873
14503 -0.076652463883313288 0.85154122751275418 4.8502112736381706 59 41 28 0.5995311619844006 17 7649 18 10340 19 11841 18 10341
14504 0.064903354869733712 1.3734285357644798 4.3473549118095116 65 42 26 0.73568056461648745 17 7709 18 10345 19 10802 2 12200 1 12200 7 6734 8 6734
14505 0.15554364149910244 1.4652047968387238 4.2565373528369772 131 103 79 0.28441489107593326 17 7714 18 10347 19 10805 7 6697 8 6697
14506 0.12519839378926959 1.5260416480921493 4.1986700330442757 83 65 55 1.0084625459691989 17 9969 18 10348 2 4000 1 4000 3 11786
14507 0.88842851684743473 3.9882551538926618 1.8541065744060681 106 80 67 0.62291822453482704 17 11241 18 10375 19 10533
14508 1.1214720096584336 4.4914759695456512 1.3592952779030714 141 114 93 0.41640492025890985 17 11310 18 10379 19 8070 2 8766 1 8766
14509 1.1126803608104581 4.5399960162388995 1.3181246655306385 106 79 57 0.71973038147711677 17 11311 18 10380 19 8071
14510 1.1126803608104581 4.5399960162388995 1.3181246655306385 106 79 57 0.71973038147711677 17 11312 18 10381 19 8072
14511 1.3499163584762259 5.0661111225437541 0.81925440069120392 60 32 11 1.2664512009152042 17 11352 18 10390 19 8002 2 1399 1 1399 3 965
14512 -0.020135846601961091 1.4371272940379312 4.2832679007498493 102 78 66 0.45280746581072578 19 3415 2 4392 1 4392 7 3467 9 3627 8 3467
14513 -0.1398262472224939 1.4204474464017118 4.2968525153714241 117 92 72 0.41838810439886948 17 7774 18 10399 19 11844 2 13308 1 13308
14514 -0.1398262472224939 1.4204474464017118 4.2968525153714241 117 92 72 0.41838810439886948 17 7773 18 10400 19 11845 2 13309 1 13309
14515 0.050951046957359532 1.6436040879250107 4.0840684032976702 118 92 69 0.15952112250847386 17 7835 18 10401 19 11797
14517 1.2285021759861585 5.3358629791064152 0.55697875544518261 87 60 60 0.89834597760026225 16 11284 18 10416 19 8005 2 1405 1 1405
14518 1.1751062078406251 5.314448869726796 0.57628861544892229 156 123 90 0.4882109237204631 16 11282 18 10417 19 2087
14519 -0.40463553525217422 1.0586375206375787 4.6403071913664089 112 88 74 0.47140263342433997 17 9962 18 10422 19 11899
14520 -0.35881106233761695 1.0446482363185692 4.6525728686317001 80 58 44 0.75749290834109395 16 7071 18 10426 19 11883 2 13408 1 13408
14521 -0.30729372780598557 1.3049977022996351 4.4063658326090032 77 56 43 0.81757130014280222 17 10000 18 10429 19 10908 2 13358 1 13358 7 6678 8 6678
14522 -0.22784078735336763 1.4435046388794428 4.2710271609929125 56 33 18 0.60366457372195281 17 7829 18 10431 19 10910 2 10122 1 10122
14524 0.7545440329989761 4.3614525541537166 1.4829077953511196 94 62 39 0.43433753969696215 12 13112 18 10444 19 8193
14525 0.82361304191621865 4.5838224264014151 1.2739565784101776 78 52 37 0.9543269537329252 10 15402 11 15402 18 10445
14526 -0.50636536364896301 1.2488094193961154 4.4549034138233248 79 56 38 0.58807877916453122 17 7824 18 10455 19 11901 2 13411 1 13411
14527 0.69023763378751501 4.5564785198911215 1.2929211160805119 93 75 65 0.33048737899325903 12 13504 18 10476 19 10578
14528 0.65478381131621743 4.6141962430615147 1.2254321330777416 116 82 54 0.7087727816230357 17 10499 18 10477 19 8266
14529 0.69154463924825793 4.655110534089328 1.197449630806062 86 63 49 0.57500163010205996 16 11159 18 10479 19 8267
14530 0.81668850672775073 4.7214705553493825 1.1369692570553933 139 105 73 0.9506887339283111 17 10469 18 10481 19 8197 18 10480 2 8853 1 8853 3 1437 4 8468 5 1087 6 1087 7 1163 8 1163
14531 -0.61063195450690833 1.0851233621212206 4.5973799427003925 73 52 35 1.266333326260251 17 1786 18 10489
14532 -0.58301035202490215 1.2108045323031136 4.4835829174894304 82 61 44 1.5373542317548725 17 7889 18 10490 7 6680 8 6680
14533 -0.61991526662546526 1.1788363894243399 4.519770509957465 63 45 35 0.41609985666575477 17 7886 18 10492 19 11932
14534 -0.57973043529758317 1.3447910126798279 4.3654876601479344 127 99 74 0.65862784834489185 16 1104 18 10493 19 11937 2 13412 1 13412
14535 0.2859756305734138 3.9974967444265599 1.8307352632632221 72 44 30 0.86643502300553621 17 11348 18 10502 19 10694
14536 0.42333323836496956 4.0222649748523631 1.809737349577387 130 99 78 0.34909908505783316 14 6155 15 6155 18 10503 19 8397
14537 0.68170197982274705 5.0935595120930497 0.78307086660403546 79 61 47 0.38554317906883978 17 11473 18 10511 19 8209
14538 -0.77879919284064747 1.1123619822258815 4.5637033822618687 92 67 47 0.68313691471427995 16 7122 18 10520 19 11992
14539 -0.63290649289379941 1.3243368771527131 4.3849507823411615 78 56 42 0.78260773561442531 17 7891 18 10526 19 11935
14540 0.44698462572621117 4.8077661811064418 1.0446113507343977 101 79 65 0.21649381835313936 16 11804 18 10552
14541 0.49874351587471127 5.0355076056621648 0.85042745429100064 52 30 19 1.32789606275841 17 9343 18 10593 19 8333
14542 0.44229197100124762 5.0596994770028294 0.80808687839729265 84 61 53 1.121078283966918 17 12316 18 10595 19 8336 2 2002 1 2002 3 1207
14543 -0.30781958396821912 3.2379829646835736 2.5344112010425892 70 49 39 0.58238870005930155 17 11325 18 10617 19 10859 2 12028 1 12028
14544 -0.30359118329928925 3.2427138472464123 2.5386129346231532 70 49 39 1.4182358374142938 9 3102 17 11324 18 10618 19 10858 2 12027 1 12027
14545 0.16034276004493772 4.7575122608433489 1.0890992009711749 103 79 67 0.8937736616358436 17 11534 18 10627 19 8489 2 2297 1 2297
14546 -1.1138945442545287 1.0557576704210159 4.6393752516134708 85 64 45 1.7104180209219073 16 1100 18 10635 19 9771
14547 -0.89288863192072077 1.8166464768200667 3.8927342063879786 56 39 32 0.90987508761033631 16 7352 18 10636 19 11999 2 13421 1 13421 3 15426
14548 -0.52534737421304545 3.1435803318809521 2.6298244845452898 34 9 3 0.90644957832118711 9 12774 17 8548 18 10646 19 10919 2 12068 1 12068
14549 -1.024802692320431 1.9403393950528427 3.7766858195450221 34 16 5 0.38184268908887431 17 8226 18 10667 19 11137 3 13682 4 12828 5 6235 6 6235 7 2546 8 2546
14550 -0.50051862341399833 3.2542766254796955 2.5254773305306149 91 72 65 0.68901511190961506 17 10453 18 10674 19 10922 2 9679 1 9679
14551 -0.075183676862356483 4.7076195265160248 1.1343685655356031 128 98 75 1.1788317041922283 13 14109 18 10682 19 10749 2 9080 1 9080 3 9449 4 8480 5 1119 6 1119 7 882 8 882
14552 -0.66729385644825867 3.2229815338816112 2.5513182203289477 55 37 27 0.84547395349503651 17 10493 18 10706 19 10950
14553 -0.50071424194228953 3.8202806189156808 1.9884058265831392 58 36 23 0.29826614526427125 17 11468 18 10709 19 10890 2 11977 1 11977
14554 -0.50337331525572426 3.8190054625216585 1.9857603131574055 58 36 23 1.1090822657446486 14 13150 15 13150 18 10710 19 10891
14555 -0.30421174717428806 4.3727960533323369 1.4547331960133383 56 39 27 0.16487292572840589 16 11226 18 10719 19 8685
14556 -0.30421174717428806 4.3727960533323369 1.4547331960133383 56 39 27 0.16487292572840589 16 11227 18 10720 19 8686
14557 -1.1358026568855937 2.0174375307149544 3.7063112909911342 62 43 29 0.56841835557165177 17 10273 18 10746 19 12039 2 13453 1 13453
14558 -1.1773868806404688 2.1119472235269177 3.6196905012528533 58 36 25 0.20523008028891532 17 10313 18 10748 19 11215
14559 -0.91999801101971501 2.723010675402437 3.0266279698390548 35 22 14 0.73332636276675756 17 10401 18 10757 19 11062 2 12256 1 12256
14560 -0.69630801660877872 3.5601727823252864 2.2284843977984532 42 24 17 0.5956887123740745 17 10641 18 10764 2 9685 1 9685 3 3237
14561 -0.32999209766119159 4.4018404031634599 1.4242389089153118 57 38 24 1.3859476452047435 13 10245 18 10765
14562 -1.1842531983236453 2.3165871644528275 3.4245040066958801 99 73 50 0.89391672083761764 17 10357 18 10783 19 12041 2 13424 1 13424 3 13473 4 12565 5 6033 6 6033 7 2243 8 2243
14563 -1.1836260158416629 2.3157183190367618 3.4247656639225217 99 73 50 0.80607896925893296 17 10358 18 10784 4 12566 5 6034 6 6034 7 2244 8 2244
14565 -0.70679993300440802 3.7352577943764986 2.0611288388718978 71 49 36 0.39754099737059834 17 10692 18 10792 2 9631 1 9631
14566 -0.71789275855270029 3.8649570465648768 1.933014765545565 54 34 20 0.27446254880603399 12 2658 17 10725 18 10793
14567 -0.57393103198718598 4.0086582220842795 1.802903515760208 61 42 33 0.4838395008301366 17 10726 18 10796 2 9457 1 9457 3 2738
14568 -0.78168038900542614 3.7255034246811722 2.0661296565131639 65 45 36 0.67849704909068154 17 10721 18 10827 19 9049
14569 -0.84615343497273077 3.747547555461388 2.0458350348632357 85 61 47 0.78626580260900703 13 3289 18 10828 3 3097
14570 -1.6159947430997597 1.6495758358510009 4.043040733735805 155 122 87 1.0221620606081128 16 1550 18 10851 5 7479 6 7479 7 5320 8 5320
14571 -1.1233296664462538 3.1946564868530314 2.5726721306199276 47 32 23 0.3312518154647317 17 10635 18 10862 19 11156
14572 -0.69924376792487231 4.5298417929069315 1.3178000251937654 0 0 0 0.14065434980242877 10 14849 11 14849 13 10355
14573 -0.69087314318978432 4.5328205371617036 1.2882027046245876 55 32 26 0.63475331096034837 13 10354 18 10870 19 8907 2 3067 1 3067
14574 -1.748148800330551 1.5586706054354933 4.1248494489663594 73 55 35 0.84678320983812971 17 8371 18 10892 5 7507 6 7507
14575 -1.6919673421034913 1.8566499627390831 3.8445360296039852 125 98 70 0.71158380986677972 17 8514 18 10896 4 12934 5 3340 6 3340
14576 -1.4536248898716899 2.4457922252106945 3.2916056135624734 62 43 29 1.4519510936744822 17 8666 18 10900 5 2776 6 2776
14577 -0.84641669462944591 4.2035129932355542 1.6059407735024225 119 88 59 0.33777952451143439 16 11295 18 10906 19 9054
14578 -1.5384228541662543 2.4520741419474241 3.2848531161156869 31 16 8 0.49989743012914384 16 7727 18 10934 2 12590 16 7728 1 12590
14579 -0.90353269855972262 4.2240281836148492 1.5820474767917609 68 46 35 0.64180662230783647 12 2912 18 10949 19 9055 2 3503 1 3503
14581 4.8363065267139405 2.5571638381559803 3.3042751712522045 137 103 75 1.4502987785521828 17 10824 18 10996 19 11314
14582 4.8363065267139405 2.5571638381559803 3.3042751712522045 137 103 75 1.4502987785521828 17 10825 18 10997 19 11315
14583 4.9952780372536596 2.618053893785333 3.2543409542793085 125 95 69 0.57882537184743232 17 10805 18 10998 19 11316 2 12695 1 12695
14584 4.4588020377223723 2.0710694555704228 3.7521316069575348 100 79 59 0.55170135121631392 17 10803 18 11022 19 11339
14585 3.9635945981416665 2.4864541105878364 3.3292066958417577 142 107 75 0.15773192813054535 16 10580 18 11046
14586 4.7346960340646849 4.1647854539357629 1.7463541244711926 84 55 34 0.42001708031628865 17 11627 18 11050 19 9963
14587 4.6746118936793151 4.6006758103277763 1.3467813088751577 100 79 62 0.115972953083383 17 11646 18 11051
14588 3.6184764857497425 1.9908761439605884 3.800059069290322 138 109 79 0.57527509372572239 16 10566 17 10841 18 11064
14589 4.1307609037852933 3.4934594541588226 2.3806217399425007 92 67 45 0.26755189249519951 17 11625 18 11067 19 12117 2 13595 1 13595
14591 2.8215000485319091 2.7616390435212188 3.0588881287210019 148 115 82 0.81585386045165242 17 10918 18 11123 19 11442
14592 3.1352710477202033 3.8447745128820263 2.0159563014232309 90 64 44 2.5011134231387473 13 7235 18 11127
14593 3.4034934500721481 4.4395917265206997 1.4623689349655513 153 123 95 0.68927922512172857 17 11004 18 11130 19 10089 2 8118 1 8118
14594 2.8127240811362517 3.2588837204674217 2.5833126856980777 107 81 66 0.67404225196431278 17 10937 18 11139 19 10191 2 11399 1 11399
14595 2.9314011813629746 3.7546449004830635 2.1124947773834419 135 100 71 1.7951942903322093 17 10981 18 11141 19 11414 2 11352 1 11352 4 8786 5 2319 6 2319
14596 3.1782424645305363 5.0759754796799328 0.8490331849108812 91 70 51 0.57277522305067263 17 11744 18 11163 19 10128
14598 1.9938036318222681 3.4206589006132724 2.4041173046611966 107 80 51 0.74543436597326518 17 11017 18 11209 19 10295 2 8669 1 8669
14599 2.1940694191733856 4.2503604261173713 1.6133028783308196 130 95 68 0.93915699423484522 17 11122 18 11211 19 10258 2 11407 1 11407
14600 0.94632667539867521 1.427752436408436 4.2894082807473293 135 126 104 1.3301645035402239 14 12369 15 12369 18 11229
14601 1.6943512942959995 3.5164090084270101 2.3027401478963583 121 94 65 0.90451032223175254 17 11089 18 11237 19 10339 2 11563 1 11563
14602 1.6917321709968647 3.7127039518304126 2.0969738164877691 66 43 29 2.0373308111476494 17 11751 18 11239 3 16332
14603 0.86582692066667966 1.4304650283392888 4.3049084247581231 188 177 155 0.36402447036436536 16 10647 18 11259
14604 1.3408170220634743 4.2475883023792687 1.6007409384262421 143 108 80 0.9327374542918162 10 15060 11 15060 18 11328
14605 0.27809801437864901 1.3268892654750377 4.3974563279499455 69 49 38 0.91025476436714103 17 10991 18 11344 19 11778 2 13223 1 13223
14606 1.4894895446184193 4.8371909879405237 1.0356233804012522 86 68 61 1.2800942117152836 17 11859 18 11357 19 10349 2 11474 1 11474
14607 1.4938934551419578 4.8421212112331826 1.0387485491783428 86 68 61 1.2666380076317978 17 11858 18 11358 19 10350
14608 1.5638290673831452 5.0286746676797929 0.85227679429257619 135 103 76 1.1308332900415035 17 11880 18 11362 19 10352 2 8484 1 8484
14609 1.5887425819216954 5.1595965090423705 0.72844986949718749 138 104 72 0.58006111395566351 16 11166 18 11365 2 1185 1 1185
14610 1.437317361974638 5.0858430951060702 0.80059224677685514 146 115 86 0.87741858850095145 16 4156 17 11889 18 11366
14611 1.0782915915602918 4.5216510476854026 1.3305546274141065 101 67 38 0.27895233800248903 17 11874 18 11391 19 10482
14612 1.0801630675360194 4.5236007478711722 1.3320554224534982 101 67 38 0.37377544237302618 17 11875 18 11392 19 10481 2 11578 1 11578
14613 0.096828779720129141 1.7100506384130818 4.0274722261107758 57 42 35 0.61608829504526808 17 10001 18 11395 19 12338 2 13906 1 13906 5 8478 6 8478 7 7198 8 7198
14614 0.78592754791767738 3.8895436081944701 1.9521099618846256 85 57 33 0.96560623478111562 17 11240 18 11405 19 11670
14615 0.99406736464453527 4.389691029562524 1.4605094022663769 160 127 102 0.63968628421026985 17 11872 18 11406 19 10480 2 8849 1 8849
14617 0.47459119013591472 3.3111486557815635 2.4868223393554962 104 76 52 1.0050988574817392 17 11209 18 11419 19 11721 19 11722 2 11818 1 11818
14618 -0.25779810416596755 1.6903800736441941 4.0269204942540364 79 60 53 0.96129482463852722 17 10024 18 11427 4 13936 3 14774 5 7550 6 7550
14619 -0.27440078585435773 1.8189113996299713 3.9078902806477531 63 43 32 1.1442578457986758 17 10068 18 11429 19 12385 2 13932 1 13932 4 14480 5 8122 6 8122 7 7145 8 7145
14620 0.52375681133818042 3.8822940710489013 1.9429852170632569 123 101 87 0.90687849303503487 10 14192 11 14192 17 11302 18 11438
14621 -0.64358903752191698 1.0439794288968558 4.6388907794015966 63 45 34 0.47561571728029051 17 9998 18 11447 19 11970 2 13542 1 13542
14622 0.48800078957506654 4.3728744576724656 1.4643104854895723 141 110 82 0.62902812532526065 17 11915 18 11460 19 10624
14623 0.48800078957506654 4.3728744576724656 1.4643104854895723 141 110 82 0.62902812532526065 17 11916 18 11461 19 10625
14624 -0.84629765032280901 0.9794437406493417 4.7006360205402826 89 69 57 1.1403571188506556 17 11102 18 11463 19 12479
14625 -0.49338692601294631 1.8957447158319416 3.8303898135478418 33 17 2 0.49605098441633322 17 10102 18 11470 19 12392
14626 -0.49255475097544416 1.896282431724297 3.8325827432056307 33 17 2 0.61460643682889693 17 10101 18 11471 19 12391 2 13943 1 13943 4 14808
14627 0.40817441977318114 4.6658716290764186 1.182188134916206 72 42 16 0.46257552084636488 17 11983 18 11487 19 10629
14628 0.52396855000381648 4.8629906038178765 0.99055609531994437 148 117 91 1.2377161420033553 16 11806 17 12002 18 11492 2 8856 1 8856 3 9280
14630 -0.61090903908468097 1.8264149662675744 3.9048370422101817 73 53 44 1.1055239522103242 17 11167 18 11509 19 11942 2 13360 1 13360 4 13905 3 13619
14631 0.072278607062339198 3.9602383161538541 1.8631839119818827 68 48 37 0.19686269707629511 17 11361 18 11519 19 10739
14632 0.22982756748828234 4.3874121584636585 1.4544730958419165 97 69 46 0.62489580127854982 13 14356 18 11523 2 2429 1 2429
14633 0.20364447380558057 4.4823301346133748 1.3607159359686287 100 73 46 0.2600829514527635 17 11980 18 11524 19 11752 2 11735 1 11735
14634 -0.89218636842694488 1.6076741371302588 4.1037328779405238 87 72 65 0.65049069635610279 16 7295 18 11538 19 11997
14635 -0.77572070765752799 1.8142574355005499 3.9035351419431104 115 93 79 0.65819955585895917 17 10169 18 11539 19 11976
14636 -0.70161206969298884 2.0109925859019535 3.7217720359496136 50 33 26 0.29928768508230585 17 10172 18 11540 19 11948 2 13333 1 13333
14637 -0.70221916213482427 2.0103832970928401 3.7198933220066546 50 33 26 0.56106876047870768 17 10171 18 11541 19 11947 2 13332 1 13332 3 14694 4 13832 5 7400 6 7400
14638 0.20429516211063767 4.7920456673725402 1.0575014090394328 70 51 38 0.92069549205154888 12 13143 18 11551 19 10666 2 8997 1 8997
14639 -1.1117682730976928 1.3777129272611 4.3095062617679245 137 104 73 0.78113656492973949 17 10133 18 11555 19 12523 5 8194 6 8194
14640 -0.79265194591751975 2.0397484062385747 3.6943012320281641 28 13 6 0.51699411190519085 17 10203 18 11563 19 11977 2 13368 1 13368 3 14698 4 13833 5 7401 6 7401
14641 -0.30769571313478744 3.7076181578104124 2.1037492052577003 104 70 43 0.7147739023117653 16 11067 18 11568 19 10862 2 11937 1 11937
14642 -0.18141720295285219 3.8510348438935837 1.9600640875525213 113 82 57 0.90817686357022953 17 11398 18 11571 2 9389 1 9389
14643 -0.097919562699412543 4.2619989035121248 1.5634623988092349 75 57 47 0.96218175951804552 13 14001 18 11575 19 10779
14644 -0.097919562699412543 4.2619989035121248 1.5634623988092349 75 57 47 0.96218175951804552 13 14002 18 11576 19 10780
14645 0.13866432084635924 4.7851247450720358 1.0599437892771928 71 45 29 0.25607387779771296 12 13499 18 11579 2 8999 1 8999
