# 3D point list with one line of data per point:
#   POINT3D_ID, X, Y, Z, R, G, B, ERROR, TRACK[] as (IMAGE_ID, POINT2D_IDX)
# Number of points: 382, mean track length: 4.1112965601465499
11301 1.475308925756498 3.5072497104009202 2.2939804825258991 121 90 62 0.24595638711572704 10 14127 11 14127 9 14189 7 5376 8 5376
11302 1.2610813089163453 1.2173551067631645 4.5082957882671764 71 55 42 1.3559336647859697 10 11064 11 11064 9 14192 3 14355 1 10103 2 10103
11303 1.298177700518983 1.4635479876050865 4.273807537084382 121 94 73 0.55045873606116713 10 11128 11 11128 9 14200 3 6450 4 12018
11304 1.4273184910226113 2.7961335225562109 2.9925647848271719 55 36 27 0.94012301831465217 14 3163 15 3163 9 14202 5 3043 4 10130 6 3043
11305 1.4260930457141179 2.6903409730668946 3.0946652391217131 76 53 45 0.10199098811299671 14 3028 15 3028 9 14207
11306 1.6003607388429051 4.6227424094510665 1.2270229166014837 98 81 62 0.66942239797176062 10 15429 11 15429 9 14209 17 8726
11307 1.2291521624176902 0.60306615581064116 5.1046600318381365 117 85 53 0.15123523019530816 10 10907 11 10907 9 14212
11308 1.535193369060899 3.8234679246947656 2.0054064555567916 55 38 26 1.3769704577076289 10 14205 11 14205 9 14213 5 5713 6 5713 7 5262 8 5262
11309 1.5810236665157971 4.3161491910723901 1.5257023677630719 97 73 57 0.47827633832657029 10 14319 11 14319 9 14214 16 2493
11310 1.3601424053973064 1.8881700809553803 3.8728198615205849 65 48 40 0.12864237946229082 10 11267 11 11267 9 14218
11311 1.4887165440701948 3.169433363724619 2.6238839340494065 84 59 48 0.73515650565031621 10 14090 11 14090 9 14219 16 1599
11312 1.2769918214964568 1.085579784883369 4.6551258197407321 125 94 73 0.16949320107966667 10 11048 11 11048 9 14220
11313 1.569627114824774 4.0194000260624101 1.8092111144093073 140 109 80 0.036286952855587445 10 14253 11 14253 9 14226
11314 1.4676013870959068 2.7596055642740565 3.0203767855165871 95 75 66 0.55304773690566289 10 14027 11 14027 9 14229
11315 1.6457455657367848 4.6682694909325431 1.1886157012690808 76 54 41 0.69539932335274135 10 14444 11 14444 9 14234 17 2799
11316 1.4380103273827418 2.1496186507240997 3.6144121721885325 59 36 30 0.67185908620936685 10 11361 11 11361 9 14238 4 10666 7 3519 8 3519
11317 1.3936818293817299 1.6214833382433778 4.120461249077918 155 129 105 0.37749978452928706 10 11231 11 11231 9 14239 3 14130 4 14722
11318 1.6294223010703033 4.1202295861233997 1.7077299673143813 66 48 36 0.37038322704233301 10 15380 11 15380 9 14241
11319 1.4865215308707582 2.5081269704775324 3.2714852785593074 55 35 26 1.3273600632955094 13 2652 9 14242 19 2189 7 5785 8 5785
11320 1.3358594257887066 1.0086305681298398 4.7285208455952716 137 109 85 0.25213880123179438 10 11066 11 11066 9 14248
11321 1.6793283893649724 4.5852261956810505 1.2663536035946779 62 42 31 1.5284045932857826 10 15448 11 15448 9 14250 16 2786 17 10828 19 8503 2 1386 1 1386 5 5400 6 5400
11322 1.3675080623841898 0.83627695705724059 4.8922443127837649 90 66 52 0.006187519815849688 10 11041 11 11041 9 14262
11323 1.6509769517800466 3.7157893039595105 2.104110441331267 61 38 30 0.61760115588793818 10 15326 11 15326 9 14264 16 8102
11324 1.4694117227793115 1.7014319898892569 4.047682751387657 71 52 40 0.54892101142981442 10 11287 11 11287 9 14266 3 14085 4 14688
11325 1.7143495650374472 4.2577426373905398 1.5860991492178267 84 61 44 0.47678289302725319 13 13458 9 14276
11326 1.3911321728774169 0.71244388418671523 5.0060358578115984 70 47 31 0.37419857862557482 10 11018 11 11018 9 14279
11327 1.3911321728774169 0.71244388418671523 5.0060358578115984 70 47 31 0.37419857862557482 10 11017 11 11017 9 14280
11328 1.4370343588119379 1.1772634301018274 4.5757654083762374 52 30 17 0.12017174419120678 10 11158 11 11158 9 14282
11329 1.6650891721564471 3.4288333833965026 2.383988008133147 132 104 87 0.33875650649596417 10 14194 11 14194 9 14284
11330 1.6792035853470255 3.5308086797774774 2.2826241199123039 62 36 19 0.038385905003004796 10 14215 11 14215 9 14288
11332 1.4450150233616004 1.1400881935468867 4.6041458772179018 55 36 27 0.39042561278044458 10 11148 11 11148 9 14294
11333 1.4450150233616004 1.1400881935468867 4.6041458772179018 55 36 27 0.39042561278044458 10 11149 11 11149 9 14295
11334 1.4608198263310443 1.2299838979024778 4.5195776063865623 100 72 48 0.37805431920060811 10 11188 11 11188 9 14297
11335 1.4489266697005929 1.104528862607751 4.6390918308211608 66 44 31 0.20523806145633672 10 11141 11 11141 9 14298
11336 1.5322558065150329 1.8011126634089696 3.947834455656801 77 58 49 0.0010163462106382824 10 11335 11 11335 9 14299
11337 1.7894966639750978 4.4475063540662019 1.3990660363689453 57 39 29 0.15731848824671604 10 14487 11 14487 9 14311
11339 1.790943458162114 4.309092064309862 1.5329412419905488 160 134 104 0.14137045578840099 14 15263 15 15263 9 14317
11340 1.790943458162114 4.309092064309862 1.5329412419905488 160 134 104 0.14137045578840099 14 15264 15 15264 9 14318
11341 1.4599705778454497 0.6623103920188359 5.0335519233243078 114 88 61 1.8243619430962332 10 3997 11 3997 14 9538 9 14319 15 9538
11342 1.4790438774283818 1.0017592579487207 4.7371995268572178 126 95 67 0.0030537918813468919 10 11138 11 11138 9 14322
11343 1.4953650393752307 1.1116795117182081 4.6313415152204582 47 27 16 0.25859650895803576 10 4273 11 4273 9 14324
11344 1.7672777235035031 3.8820119867552911 1.9564985467161118 56 37 23 0.31754036827698928 10 14340 11 14340 9 14333
11345 1.7846457519252528 3.9464821003876018 1.8881059628083041 102 76 49 0.16997675896921613 10 14365 11 14365 9 14340
11346 1.5043694151189682 0.80684415090253192 4.8912290206336566 84 62 50 1.2581729121569012 15 973 9 14341 14 973
11347 1.7734025592009619 3.6323592498297095 2.1820918842434107 91 69 59 0.10413505118917295 10 14278 11 14278 9 14342
11348 1.5279929872779059 1.1186469266606014 4.6292308299951852 93 74 59 0.26980743115910666 10 11208 11 11208 9 14345
11349 1.6053461615921303 1.6408917651122776 4.1032585644378434 125 94 73 0.084569496722532181 10 11344 11 11344 9 14349
11350 1.6395985617048783 1.9578747756738477 3.8028782027211809 43 26 18 0.49033915787001581 10 11433 11 11433 9 14351 5 7795 6 7795 7 7050 8 7050
11352 1.6122002134773539 1.6838781967165819 4.0657581124486022 71 47 34 0.36079775676058018 10 11360 11 11360 9 14353 3 11678 4 13621
11354 1.8400448215063472 3.9487784465669473 1.8815755139612114 76 57 45 0.25038133390027978 10 14399 11 14399 9 14367
11355 1.7102070182796154 2.338137762467019 3.4355346467768211 78 58 49 0.98088526442634638 12 2607 9 14374 4 3940 7 5890 8 5890
11357 1.6208475411279601 1.3635498446572951 4.373777327396887 53 35 29 0.52868575130992079 10 13899 11 13899 9 14380
11358 1.8174671320078941 3.3940720210004249 2.419680575590506 47 27 16 0.68265808120363336 14 11056 15 11056 9 14384 16 1624 5 2567 6 2567 7 2523 8 2523
11359 1.8613551014887124 3.7262703796589287 2.1011323095108185 63 45 33 1.5813966586868993 10 7696 11 7696 9 14388
11360 1.6366086784249194 1.3589425280261389 4.3836659940910012 100 75 55 0.78881047977673369 10 11304 11 11304 9 14389
11361 1.806914556614073 2.871815334016985 2.9135937951982425 73 46 35 0.15766623791380849 10 15242 11 15242 9 14396
11363 1.6656917604149648 1.2312225204627412 4.5202321965772629 63 44 37 0.2705323967270053 10 11298 11 11298 9 14406
11364 1.8257647606822494 2.7433690308965448 3.0483558739853258 124 93 67 1.4662901866525122 10 14149 11 14149 9 14408 4 15060 5 3152 6 3152
11365 1.6269215390515368 0.70697220941814931 5.0207840722168458 97 72 49 0.075848358275225 10 11162 11 11162 9 14409
11366 1.6269215390515368 0.70697220941814931 5.0207840722168458 97 72 49 0.075848358275225 10 11161 11 11161 9 14410
11367 1.6761989917158526 0.95892710801228387 4.7771885148060242 89 62 35 0.24590936698980137 10 11256 11 11256 9 14420
11368 1.7833468009717379 1.8455700862531697 3.9130667801262873 18 0 0 0.39785466929433771 10 11506 11 11506 9 14428 4 11068 5 4608 6 4608
11369 1.7766293159516588 1.6877425283097682 4.0645724942477797 32 15 7 0.2734162870539984 10 11444 11 11444 9 14434
11370 1.7774680479793514 1.6872628661516951 4.0632409739480702 32 15 7 0.25008133066791582 10 11445 11 11445 9 14435 4 13612
11371 1.9510767701393876 3.5112934152920574 2.3060617871190683 148 114 86 0.14177172192782386 10 14363 11 14363 9 14436
11372 1.7038977902596419 0.78334070190622007 4.9456847954909842 159 128 100 0.19228638002535545 10 4366 11 4366 9 14439
11373 1.7038977902596419 0.78334070190622007 4.9456847954909842 159 128 100 0.19228638002535545 10 4367 11 4367 9 14440
11374 1.7130594223705056 0.80728285499358066 4.9211269801758943 121 92 62 0.41222413039682165 10 11240 11 11240 9 14445
11375 1.7130594223705056 0.80728285499358066 4.9211269801758943 121 92 62 0.41222413039682165 10 11241 11 11241 9 14446
11376 1.7320221653682042 0.91169836346181676 4.8141915604883545 63 42 34 0.37355647883038651 10 11269 11 11269 9 14450
11377 1.7320221653682042 0.91169836346181676 4.8141915604883545 63 42 34 0.37355647883038651 10 11268 11 11268 9 14451
11378 1.9670898814822662 3.3114659627415457 2.4948158527813415 56 32 29 0.25041680168867525 10 7420 11 7420 9 14452
11380 1.7810259302595364 1.0141339496608099 4.7189148132505032 40 16 5 0.26479871851467879 10 11308 11 11308 9 14466
11381 1.8841607336226851 1.8592170156266656 3.9042772543605007 38 21 13 0.99053734466642263 10 14054 11 14054 9 14473 3 4699 5 6798 6 6798
11382 2.0248835656399042 3.3244081360170252 2.4955694381712847 42 17 21 1.4710112481112849 10 14366 11 14366 9 14474 7 2633 8 2633
11383 1.9278473978169932 2.2139100931459512 3.5596308390799538 155 124 95 0.027233784267314414 10 11708 11 11708 9 14475
11384 1.9278473978169932 2.2139100931459512 3.5596308390799538 155 124 95 0.027233784267314414 10 11709 11 11709 9 14476
11385 1.8164054595773127 1.1612841370518858 4.5819797314389614 89 70 64 0.047978828360291305 10 11363 11 11363 9 14477
11386 2.0677890808228567 3.5325248295387834 2.2959697050459531 32 11 6 0.51189912004925919 10 14438 11 14438 9 14486
11387 2.1062449464150284 3.8872972767874989 1.9435553108100441 163 132 104 0.23343840905025368 14 11660 15 11660 9 14487
11388 1.9428050275770019 2.0369468876357861 3.7253111922122564 119 94 70 0.55815981081217803 10 14097 11 14097 9 14489 3 4308 4 10740 5 6647 6 6647
11389 1.949586480042224 2.0815228699601405 3.6882593751061177 61 42 31 0.38210520163879791 10 11689 11 11689 9 14492 3 4222 4 10697 7 6091 8 6091
11390 1.8617366803072588 1.2211220741114959 4.5241866806303559 65 47 37 0.030388758129814748 10 11401 11 11401 9 14493
11391 1.8617366803072588 1.2211220741114959 4.5241866806303559 65 47 37 0.030388758129814748 10 11402 11 11402 9 14494
11392 1.892798230807671 1.4876272014595866 4.25755994273963 150 120 92 0.45423159018751524 10 14006 11 14006 9 14505 3 11784 4 13761
11393 2.0761829959096398 3.4028253392552821 2.417997418950351 121 90 62 0.41826581631359633 10 14410 11 14410 9 14507 7 2597 8 2597
11394 1.8655943508048429 1.2034909942005669 4.5430465843486845 51 30 21 0.70137135499065983 10 4870 11 4870 9 14509
11395 2.0069842369117699 2.5887332216648056 3.2027008315586039 107 79 57 0.25116702046131628 10 11867 11 11867 9 14510
11396 1.9316590687843602 1.7040613941649652 4.052820094019487 46 31 22 0.52661090273127287 10 14046 11 14046 9 14513 3 11534 4 13591
11397 2.0126787386402607 2.5159903434516826 3.2730092820240566 105 77 55 0.6462333585531842 12 3010 9 14515 5 3402 6 3402 7 3356 8 3356
11398 1.8748762186866044 1.1024727535745731 4.6384631517744399 112 86 59 0.31680660688946277 10 11384 11 11384 9 14516
11399 2.1229442278098869 3.6489424204683041 2.1757117984730341 94 77 68 0.15787805381296258 10 14491 11 14491 9 14521
11400 1.9222142622292999 1.4912544640329539 4.2531607779202458 131 104 82 0.67712584243272333 10 11511 11 11511 9 14525 3 11769
11401 2.1910074618991247 4.220359029232764 1.6279912938579373 33 13 5 1.2397549643900596 14 14238 15 14238 9 14533
11402 1.950567689410591 1.5937445057228823 4.1611229658164319 110 86 74 0.5822007575686533 10 11558 11 11558 9 14535
11403 2.1202470656725194 3.3654578746303447 2.4547312931766436 43 25 15 1.1542093629611681 14 13776 9 14536 15 13776 16 7893 17 1643
11404 2.121084018357088 3.2281922583339244 2.5816447301504266 74 52 41 0.30286098635430442 10 14401 11 14401 9 14538
11405 1.9847567850216072 1.7524836722789541 4.0068174112606814 19 8 3 1.4453114140173302 10 11633 11 11633 13 13787 9 14539 4 13553
11406 1.9329280389156194 1.0716096249696028 4.6620181518936752 137 106 80 0.06140838533753764 10 11408 11 11408 9 14551
11407 2.0077090515721392 1.6880141514634606 4.0675471815661961 41 17 7 1.4281431791181902 10 11631 11 11631 9 14554 3 4970 4 6147
11408 1.924466445585957 0.84947384994752106 4.8995611349791801 70 50 39 0.84826348450476063 10 4765 11 4765 9 14557
11409 2.0283377499553219 1.7746726134739281 3.9907458432890377 63 48 41 0.45727122428992906 10 11671 11 11671 9 14558
11410 2.0769530293283047 2.185227229318131 3.5845214334120268 137 106 78 0.31820376819065344 10 14172 11 14172 9 14561 5 6559 6 6559
11411 1.9423383367911726 0.8977443755771195 4.8439390559017825 127 100 72 0.40827509915632038 10 11375 11 11375 9 14562
11412 2.0579497543080638 1.8102624194800807 3.9522919757339574 44 25 19 0.34506108430510246 10 11694 11 11694 9 14573 3 4661 4 11089
11413 2.1346545920990234 2.5287644014377402 3.2608372807760544 131 102 78 0.35608154520202467 12 9431 9 14577 5 3413 6 3413
11414 2.0160812458445818 1.3652268436665509 4.3893275670115761 128 94 66 0.10234172354881672 10 11547 11 11547 9 14579
11415 2.0707406000576212 1.8435732270021625 3.9192248878577525 36 18 14 0.61376734083712092 10 11713 11 11713 9 14580 3 4591 4 11042
11416 2.0094850286993258 1.141776025520435 4.5955549964295708 116 91 71 0.34509931090326029 10 5115 11 5115 9 14585
11417 2.133761817373363 2.1908270005832167 3.5804838164648629 139 108 81 0.74833946955243769 10 14192 11 14192 9 14587 3 3918 4 10556
11418 2.2481304665943513 3.3572491487425351 2.4618469498046571 55 36 30 0.69037710383942963 14 11035 15 11035 9 14597 16 1466
11419 2.0871884191426626 1.2828020177577169 4.4631716213960537 141 110 81 0.49187064804717756 10 11580 11 11580 9 14614
11420 -4.3088300422865462 4.4160681277119203 1.3317392368409533 135 104 70 1.2291882704655841 10 12860 11 12860 9 14619 5 6970 6 6970
11421 -4.1448366422365446 4.5407847479869039 1.159771068207522 121 90 61 0.29796139612236955 10 9289 11 9289 9 14621
11422 -4.2434318685615313 4.5272641499682793 1.2253838017596193 96 69 42 0.57237533133200025 10 14557 11 14557 9 14622
11423 -4.157356714831586 4.7564960775768679 0.98315379158012073 137 107 78 0.91051131383710748 10 15521 11 15521 9 14627
11424 -4.2880194131109972 3.8266626164972202 1.8974302492097426 154 117 80 0.4845451625971256 10 12823 11 12823 9 14628 5 8008 6 8008 7 6204 8 6204
11425 -4.0106188882989038 4.8295111371661923 0.94597753790999162 255 250 231 0.46748102288122956 10 15533 11 15533 9 14633
11426 -4.0106188882989038 4.8295111371661923 0.94597753790999162 255 250 231 0.46748102288122956 10 15534 11 15534 9 14634
11427 -4.1380007994945744 3.2253539369580411 2.4716136840534899 99 73 46 0.23740849857781901 10 14526 11 14526 9 14635
11428 -3.9854101066292564 4.4702591257961091 1.3033423072458084 161 123 86 0.16945296071748625 10 15528 11 15528 9 14638
11430 -3.9987918394473474 2.3606498206319992 3.279117222351422 152 117 85 0.49499717612681504 10 14514 11 14514 9 14652
11431 -3.7515372151898219 5.2369668388913224 0.55462183372739071 119 90 59 0.14937420261844001 10 14628 11 14628 9 14654
11432 -4.0163980490751703 1.9222084286622383 3.7378588468491705 93 69 45 0.43571629681130614 10 14505 11 14505 9 14656
11433 -3.782988571419696 3.9671868378405972 1.777068431921407 104 77 50 0.15567969021302672 10 14582 11 14582 9 14661
11434 -3.5434011903561857 3.532409500841756 2.1640377304890213 100 73 44 0.24735165753243113 10 15529 11 15529 9 14670
11435 -3.4541775199819238 3.850691988328228 1.8841668185093785 147 111 75 0.35558254729914524 10 14600 11 14600 9 14677
11436 -3.4541775199819238 3.850691988328228 1.8841668185093785 147 111 75 0.35558254729914524 10 14601 11 14601 9 14678
11437 -3.3036439029287448 4.8696403852083243 0.91638158463187969 143 108 76 1.185649148038044 10 9671 11 9671 9 14685
11438 -3.2032534449214189 4.8554687380305985 0.91500177900713942 85 61 37 0.02066491509790731 10 15587 11 15587 9 14691
11439 -3.1504272254323284 4.9041242228489175 0.87249821444343556 129 95 60 0.3008752495591504 10 15593 11 15593 9 14695
11440 -3.0370809590178247 5.2571896811583638 0.53159452793942885 97 69 47 0.20741845888919277 10 15604 11 15604 9 14698
11441 -3.2569383376175916 1.2914291692128801 4.3230469380026841 144 127 97 1.3392634071643796 10 9188 11 9188 9 14710
11442 -2.9119828279258959 2.9702979807461007 2.7363996408389943 88 61 40 1.4859543041557204 10 14626 11 14626 9 14728
11443 -2.71082733330541 4.2903789834796049 1.463626499711403 99 74 51 0.20954005495786121 10 15600 11 15600 9 14737
11444 -2.8750138734703223 3.0433588199820854 2.6879331741049302 96 72 46 1.2574244200012725 10 13008 11 13008 9 14738 7 6349 8 6349
11445 -2.9643088582804684 -0.5754883223643793 6.1800758319552438 90 69 48 1.6206400815539013 10 14513 11 14513 9 14753
11446 -2.4181134279466958 4.4712295783656666 1.3125952235940028 133 98 70 0.22709926275544148 10 14716 11 14716 9 14762
11447 -2.3245001481163481 4.4863197253878928 1.2804061795092105 152 118 83 0.19565220375965031 10 15629 11 15629 9 14767
11448 -2.3899950441020579 3.6691594143386732 2.0637648276753771 104 79 59 0.19521413757862804 10 14692 11 14692 9 14768
11449 -2.4280610558546254 3.4366485893411483 2.3072554756216537 100 74 52 0.33649079976039581 10 14682 11 14682 9 14770
11450 -2.2607311956347793 4.4766193819825348 1.3014786852607343 101 76 54 0.29760474279430715 10 15632 11 15632 9 14773
11452 -2.1205875516943484 4.757325963163658 1.0274043841465632 142 107 76 0.78957382415573618 10 15646 11 15646 9 14783 7 4387 5 6979 6 6979 8 4387
11453 -2.033415400838873 4.3605586995483243 1.4179346477910681 91 70 51 0.42878597029746457 10 14741 11 14741 9 14794
11454 -2.2550216267064753 -0.30779773315740211 5.904474906098506 134 101 66 0.34588019276363574 10 14572 11 14572 9 14800
11455 -2.1021397471972043 0.25981979773531855 5.3743779279464601 129 103 73 0.55618158312545696 10 12952 11 12952 9 14805
11457 -1.4631704549242017 4.8650165970499879 0.95651859719609844 117 87 59 0.74618138771763187 10 15688 11 15688 9 14828
11458 -1.7496076332249004 0.71693410459096107 4.9274072230382053 64 43 21 0.21048739161444038 10 13052 11 13052 9 14834
11459 -1.8124821475431545 -0.20678079697534835 5.8175366641296291 85 64 47 0.0096264670861611178 10 12969 11 12969 9 14835
11460 -1.8124821475431545 -0.20678079697534835 5.8175366641296291 85 64 47 0.0096264670861611178 10 12970 11 12970 9 14836
11461 -1.3247526768277569 5.0347899008662909 0.78588353166055669 78 58 39 0.20155179473828477 10 14849 11 14849 9 14837
11462 -1.3047086933879868 4.9845787859417108 0.82864131469278068 98 77 57 0.38221570331949134 10 15701 11 15701 9 14839
11463 -1.6638298353358618 0.78649981256733714 4.871670887328877 130 100 76 0.16568396543108505 10 13078 11 13078 9 14840
11464 -1.6621722997428878 0.678030589711905 4.98675025181225 125 92 59 0.20230461837898192 10 13074 11 13074 9 14841
11466 -1.1290574464093712 4.3263365398070714 1.4675641169621088 133 99 71 0.5489243850929465 10 15696 11 15696 9 14852
11467 -1.1067377561069003 4.400093480748442 1.3910586291323381 129 96 65 0.55161428929207224 10 14846 11 14846 9 14853
11468 -0.93848707966716138 4.0370413033887704 1.7464944854616862 137 102 70 0.030915826822668566 10 14850 11 14850 9 14871
11469 -1.2525036163397409 0.067948949691801278 5.5723833926988258 109 84 62 0.00087967152738738751 10 14673 11 14673 9 14880
11470 -0.74964943542019213 5.0550817788633786 0.7720663560666533 100 75 53 0.4764949680011506 10 14949 11 14949 9 14881
11471 -0.70059932041195783 4.9959760780074305 0.80900156908539733 130 99 69 0.36145297520681002 10 15767 11 15767 9 14885
11472 -0.85580730560855933 3.437990306481439 2.3140736717164847 93 67 49 0.95446490331629408 10 15693 11 15693 9 14887
11473 -1.0407259306625665 0.81335016862715004 4.8359401779982765 127 105 84 0.43898609055800869 10 13198 11 13198 9 14892
11474 -1.1323591574404144 0.14061981410552205 5.5169930688592697 134 102 81 0.13620937182476281 10 14684 11 14684 9 14894
11475 -1.0109246696298673 0.60716497878883136 5.0587115827852989 70 51 36 0.14758846498915698 10 13193 11 13193 9 14896
11476 -1.0109246696298673 0.60716497878883136 5.0587115827852989 70 51 36 0.14758846498915698 10 13194 11 13194 9 14897
11477 -0.62543658660439883 4.276120927258984 1.5316700651310053 141 107 75 1.0983373778104595 10 14916 11 14916 9 14905 16 9605 18 5521 4 14049 3 14851
11478 -0.8398775088158783 0.99304157388404268 4.6578002389557449 128 102 78 0.053639127875037634 10 13245 11 13245 9 14908
11479 -0.8398775088158783 0.99304157388404268 4.6578002389557449 128 102 78 0.053639127875037634 10 13246 11 13246 9 14909
11480 -0.47039051750271571 3.8181925043315288 1.9770895657739838 98 70 49 1.9526649201813568 10 15735 11 15735 9 14921 18 12898 17 12676 19 13175 2 13886 1 13886
11481 -0.44890838534398725 3.8005218213914009 1.9755835162026731 98 70 49 2.399985854241931 10 15736 11 15736 9 14922 19 13172 2 13881 1 13881
11482 -0.72657661918365202 0.18885321677809119 5.4468116909464941 64 47 37 0.75840984382466703 10 13212 11 13212 9 14927
11483 -0.32865255914623626 4.3656802269608157 1.4452697648126189 104 74 46 0.33087488998717957 10 14972 11 14972 9 14929
11484 -0.61993047492681663 0.4868798913485714 5.1923447820141595 125 90 58 0.12152906988646876 10 13258 11 13258 9 14938
11485 -0.61993047492681663 0.4868798913485714 5.1923447820141595 125 90 58 0.12152906988646876 10 13257 11 13257 9 14939
11486 -0.28617712354618385 3.5882832301369003 2.1771030178990087 99 71 47 1.6230229576112434 10 14928 11 14928 14 4687 9 14944 15 4687 16 3057
11487 -0.51633770790701849 0.95933490208600658 4.7216107459685608 78 60 48 0.7364645960292725 10 13298 11 13298 9 14946
11488 -0.51633770790701849 0.95933490208600658 4.7216107459685608 78 60 48 0.7364645960292725 10 13299 11 13299 9 14947
11489 -0.55021794228286702 0.58378565044145336 5.0996142927647972 146 112 85 0.68779495678518821 10 13274 11 13274 9 14948
11490 -0.19426947705362715 4.0575316521141946 1.7304571926420154 110 77 52 1.2586028862035095 10 15774 11 15774 9 14952 18 4080
11491 -0.41543094789840973 1.8384775019061557 3.9198817149237311 129 120 105 0.59175532531684027 10 16845 11 16845 9 14961
11492 -0.49306613589370041 0.1393969942435512 5.5037539815028111 111 84 64 0.61679510402278748 10 14731 11 14731 9 14964
11493 -0.39487133483699693 1.1612248115158241 4.5175867007009067 116 86 60 0.96622051151227639 10 14780 11 14780 12 11148 9 14965
11494 -0.34102556167239906 0.90512710940816021 4.7720697193863773 158 128 100 0.26560491300157185 10 13333 11 13333 9 14971
11495 -0.34102556167239906 0.90512710940816021 4.7720697193863773 158 128 100 0.26560491300157185 10 13332 11 13332 9 14972
11496 -0.35374862042261823 0.64581897295617463 5.0392065903356746 109 88 71 0.11695426091080115 10 13307 11 13307 9 14977
11497 -0.35374862042261823 0.64581897295617463 5.0392065903356746 109 88 71 0.11695426091080115 10 13308 11 13308 9 14978
11498 -0.2787962588897584 1.0463208248451192 4.6501601241364767 74 51 35 0.31883044879352562 10 14790 11 14790 9 14982
11499 0.0023801521413642267 3.4517535442650491 2.3331135065593251 112 85 64 1.8245291007606712 10 14969 11 14969 9 14990 17 12560 18 12251 19 12557 2 12663 1 12663
11500 -0.2540491120003967 0.56925458031635834 5.1188678431030361 82 48 21 0.41473101530233158 10 13326 11 13326 9 14991
11501 -0.18383884636672343 0.57773784321495758 5.1072155918309825 151 124 97 0.38375386577531206 10 13348 11 13348 9 15002
11502 -0.1810006376186977 0.30826770389392105 5.3735064331656641 141 110 82 0.2807195676177322 10 10186 11 10186 9 15008
11503 -0.12903222767536948 0.29920588431486822 5.3712670231275377 34 14 3 0.24664351605043522 10 13328 11 13328 9 15010
11504 -0.017955119525345935 0.49131769888138871 5.2015954869098762 114 94 80 0.29943413423493065 10 13377 11 13377 9 15028
11505 0.0053740987499706974 0.66630834026620456 5.0357349914810703 113 80 48 0.51357797454851761 10 13404 11 13404 9 15029
11506 0.0053740987499706974 0.66630834026620456 5.0357349914810703 113 80 48 0.51357797454851761 10 13403 11 13403 9 15030
11507 0.093989960288975688 1.428510297996554 4.2924258357753651 120 93 72 0.18549627572034111 10 14862 11 14862 9 15031
11509 0.11822069070725494 1.2742295607460363 4.4373052544658353 46 29 19 0.22390308170661818 10 13473 11 13473 9 15036 7 7929 8 7929
11510 0.45452801663698539 4.5717415722283903 1.2714340908236295 110 76 41 0.68464323961552986 10 15835 11 15835 9 15037
11511 0.1743148538594905 1.0762932937550302 4.6224918426573547 109 92 76 0.29863970439443377 10 13468 11 13468 9 15045
11512 0.1743148538594905 1.0762932937550302 4.6224918426573547 109 92 76 0.29863970439443377 10 13467 11 13467 9 15046
11513 0.14166140201292707 0.35622990294314449 5.3295493360300306 125 98 74 0.095432054160680083 10 13407 11 13407 9 15055
11514 0.54885627189575736 3.9529651264450281 1.8588694155128487 129 99 78 0.73000510719912259 10 15086 11 15086 9 15068
11515 0.69318845545045926 4.6477157895141774 1.1842001890003471 64 41 25 1.4856550255527186 10 15160 11 15160 9 15086 18 11175 16 11902 8 1241 7 1241
11517 0.73349097753213677 3.888144205312221 1.9048566952888777 124 93 62 1.0843134286027099 10 15124 11 15124 9 15104
11518 0.73349097753213677 3.888144205312221 1.9048566952888777 124 93 62 1.0843134286027099 10 15123 11 15123 9 15105
11519 0.46312444785569362 0.97958923400553244 4.7245661053891421 107 77 51 0.62042163863364674 10 13533 11 13533 9 15109
11520 0.84371468570498365 4.7214308528200499 1.1149568921617126 97 76 57 1.1486177757678111 10 15198 11 15198 9 15115 16 10932 17 11108 18 8913 19 2503 8 4775 7 4775
11521 0.87468578789400886 4.5817968541898333 1.2629082515956231 66 50 38 0.75297818812266626 10 15892 11 15892 9 15125 16 12443 17 12577
11522 0.53541431236799097 0.56873093353315385 5.1228694719003514 71 48 40 0.097157719486858071 10 13503 11 13503 9 15132
11523 0.63401919784245919 1.466658484947807 4.2506664071137559 13 8 5 0.68836712018804291 10 10773 11 10773 9 15135
11524 0.93725549933589924 4.4037938156411256 1.4419112338211943 106 83 65 1.136189973629028 10 15890 11 15890 9 15143
11525 0.83661442652527851 3.2194005314873437 2.573054269961442 147 131 115 0.27342015573214157 14 14871 15 14871 9 15144
11526 0.71184806595477634 1.4035152431601883 4.3285649783531985 93 74 63 0.25730714514461556 10 14963 11 14963 9 15153
11527 0.93098204458512224 3.6391341781498605 2.1717590696791067 70 48 35 2.1791059455779491 13 13062 9 15154
11528 1.0002574919967624 4.2672422443125475 1.5633703916633124 117 94 80 0.010353390673554732 10 15194 11 15194 9 15155
11529 0.810739556060179 2.1475531616266412 3.6077273862414478 20 13 7 0.013331142058027939 10 13744 11 13744 9 15156
11530 1.036488991705101 4.4745584556759876 1.3592999950202387 109 78 51 1.314733639023808 10 15910 11 15910 9 15165
11531 1.1103724092333334 4.8748837832019269 0.97389374981706056 155 122 93 0.049245689496920597 10 15277 11 15277 9 15172
11532 0.77448972796774518 1.0669023516888925 4.6516879679580772 85 63 49 0.31874909250952349 10 13634 11 13634 9 15181
11533 0.76861628557636841 0.92499644278826232 4.802589999747819 40 23 16 0.37520452965571943 10 13624 11 13624 9 15183
11534 1.028972815480161 3.4461022544013984 2.3525109368919428 70 51 37 0.3555702915900536 10 15140 11 15140 9 15185
11535 1.1785719347410932 4.6829715747386054 1.1615550228426215 75 57 45 0.11039913011126305 10 15953 11 15953 9 15192
11536 0.87249640121282024 1.4136765110239362 4.3196419595580524 81 56 36 0.8869468530225052 10 13694 11 13694 9 15193 3 16158
11537 1.1188915816039164 3.8786340332662599 1.9368735233961187 139 109 84 1.4872070042136565 10 15183 11 15183 9 15194 16 10557
11538 1.1188915816039164 3.8786340332662599 1.9368735233961187 139 109 84 1.4872070042136565 10 15184 11 15184 9 15195 16 10558
11539 1.1506111605634874 3.7505481163646395 2.0590070771220961 121 98 82 1.0900325858967623 10 15180 11 15180 9 15207 7 2107 8 2107
11540 1.0452070392317192 2.4562895870873751 3.3136405328256306 32 10 0 0.58184615419468189 10 15064 11 15064 9 15210 7 7445 8 7445
11541 1.0448998267022991 2.4564976186994576 3.31372491552969 32 10 0 0.49987878624021231 10 15065 11 15065 9 15211 5 8262 6 8262 7 7444 8 7444
11542 1.2403682153645619 4.5226690461147347 1.3205175266381177 87 64 50 1.0049424548079888 10 15954 11 15954 9 15216 16 10774 4 9088 7 1522 8 1522 3 1497
11543 1.234305920433179 4.4358398231773499 1.4086753362228428 119 89 61 0.070412686246812337 10 15258 11 15258 9 15217
11544 1.1689767683228411 2.4240869275621906 3.3440652443913796 68 51 44 0.22828317870743589 10 15097 11 15097 9 15221
11545 1.2722192967809676 3.1868332274059408 2.6063342903461599 107 81 68 0.43293461688491824 10 15870 11 15870 9 15224
11546 1.0783677194681205 1.1164952318058254 4.6174508930649534 114 84 58 0.076003713979392137 10 10931 11 10931 9 15226
11547 1.1224261170391059 1.3537803560822521 4.3758828357638038 51 29 16 0.063436229035025521 10 13747 11 13747 9 15230
11548 1.2665461056553731 2.5866986821833282 3.1934274143963362 86 66 57 1.0152131814417351 14 10546 15 10546 9 15233 7 5713 8 5713
11549 1.4084378235367976 3.8909388207048923 1.926592741493302 87 64 50 0.088817192265460143 10 15240 11 15240 9 15237
11550 1.1787834259267562 1.3982883093273775 4.3381583466997968 147 117 92 1.4869392888015625 12 8633 3 15457 9 15240
11552 1.4976806970246794 4.3979215593512393 1.4504066496319892 89 67 56 0.26642483804862765 10 15999 11 15999 9 15256
11553 1.3964570959413498 3.1718366927263064 2.6257516654950468 49 27 14 0.57021965454704415 10 15187 11 15187 9 15257 17 8356 18 8448
11554 1.4796317683399844 3.9282170617880126 1.8959663979408707 77 58 44 0.59903154101575651 14 15121 15 15121 9 15265 16 10511
11555 1.3812859725830806 2.6396841867665679 3.1440395318344563 65 38 19 1.0731513266399688 10 15150 11 15150 9 15274 4 14343 5 7548 15 10576 14 10576 6 7548 7 6805 8 6805
11556 1.2924035156115925 1.5154694041540515 4.216520950151371 88 65 57 0.25207850058072739 10 13830 11 13830 9 15277
11557 1.5554133873489411 4.383333907302406 1.4673391298156684 64 48 35 0.15480287925812244 10 15386 11 15386 9 15279
11558 1.4685281815080791 2.9360541140519079 2.8558308676326569 108 81 60 1.0489536737721006 10 15181 11 15181 9 15284 16 1489 5 6109 3 3318 6 6109 7 6733 8 6733
11559 1.4906074093647024 3.0988735956915638 2.7018517191593654 58 36 25 0.21894791521954612 10 15200 11 15200 9 15287
11560 1.4906074093647024 3.0988735956915638 2.7018517191593654 58 36 25 0.21894791521954612 10 15201 11 15201 9 15288
11561 1.5539426642032583 3.733078021252064 2.0851525047153978 54 34 23 0.66177712783162346 10 15279 11 15279 9 15290
11562 1.3027852126750774 1.0889623823202412 4.6497420208068236 46 25 14 0.038886394597130003 10 13779 11 13779 9 15296
11563 1.3967367166998932 1.695025020713012 4.0489534404451719 66 52 43 1.1452329292292167 10 13871 11 13871 9 15306 3 16039 4 14690
11564 1.4182236099852199 1.636816091633045 4.1047354313337667 53 34 27 0.63186163453564137 10 15081 11 15081 9 15308 3 16054
11565 1.6632277706492058 4.0794780754610462 1.7542637507461523 109 80 49 0.63831723707576948 10 15385 11 15385 9 15315 16 10522 5 1896 6 1896 7 2027 8 2027
11566 1.6418049840753228 3.7031095640261849 2.1199504358561296 122 92 64 0.16298152104502528 10 15317 11 15317 9 15320
11567 1.7303810891291869 4.5277926746427042 1.3193268308118318 77 58 43 0.71048096779865011 10 15458 11 15458 9 15323 16 8460 17 8647 18 2216
11568 1.7306903053432576 4.5272296219756942 1.3191438775131903 77 58 43 0.70760908751045781 10 15457 11 15457 9 15324 17 8648 18 2215
11569 1.4901775456591886 1.8732140639390178 3.883406163419874 60 42 30 0.7820401298323254 10 13914 11 13914 9 15327 3 14006 4 14627
11570 1.4648485700984302 1.5505038504597604 4.189964658781955 88 68 59 0.81107305456693324 10 15085 11 15085 9 15331 3 5941 4 11719
11571 1.4170049645009128 0.95226684256869321 4.7793976982608131 49 31 26 0.56602491538902067 10 11097 11 11097 9 15335
11573 1.6627090445948194 3.3203451662532544 2.4807472807295068 46 26 18 0.014138502426004894 10 15257 11 15257 9 15338
11574 1.527187923299971 1.856506830184063 3.8991724389106404 82 64 54 1.7368110863657917 10 13922 11 13922 9 15339 3 14009 4 14634
11575 1.508059356019767 1.642702444876327 4.0978410873011031 83 65 55 0.36794477186566626 10 15110 11 15110 9 15340
11576 1.4144212648584349 0.77302102353871438 4.9477335000096598 61 47 36 0.072769446805962923 10 13768 11 13768 9 15342
11577 1.4144212648584349 0.77302102353871438 4.9477335000096598 61 47 36 0.072769446805962923 10 13769 11 13769 9 15343
11578 1.6499639672828741 3.1246451927267738 2.676975605177494 50 27 13 1.1580857030488869 10 14135 11 14135 9 15345 5 6031 6 6031 7 5551 8 5551
11579 1.7727633699193794 4.5381245015113132 1.3139216678373451 47 29 25 0.55923928481480345 10 15470 11 15470 9 15346 16 10666 17 2587
11580 1.4537052524828855 0.9380043494905671 4.7912482720376595 68 49 42 0.21532552967063875 10 11109 11 11109 9 15350
11581 1.7791389735162317 4.4015072650986422 1.447042432328735 122 95 67 0.50983952001800759 10 16051 11 16051 9 15351 16 10612 17 8584
11582 1.6912865161368691 3.1264759370764832 2.6768423316161405 97 74 66 1.2951198390576952 10 14154 11 14154 14 13660 15 13660 9 15357 16 7898
11583 1.660043612864553 2.7856059860651921 3.0034350945943138 91 74 66 0.4795678823014291 12 11821 9 15358 4 10114 5 6231 6 6231 7 5695 8 5695
11584 1.4798583940056631 0.81626684835467556 4.8941400448981867 84 54 26 0.30129235660604597 10 13806 11 13806 9 15365
11585 1.7900799523991375 4.1403806115805022 1.7005593105912427 80 61 47 1.6157077040530954 14 15780 15 15780 9 15366 16 11628 17 11817 18 8419 19 11053
11586 1.5658693223433995 1.649473949016987 4.0994600021239478 55 36 29 0.078835771250311382 10 13913 11 13913 9 15370 4 14711
11587 1.7487411250317642 3.3298639716955698 2.4820692334466905 53 33 24 0.88075243380168267 10 15298 11 15298 14 13758 15 13758 9 15375 16 7950 17 8293 18 8307
11588 1.4996158542235876 0.74729482937046543 4.9770428126564461 60 41 34 0.026217050929092794 10 13807 11 13807 9 15376
11589 1.4899390196149678 0.67065506052801849 5.0566550401819468 120 94 69 0.10205804546930712 10 13791 11 13791 9 15377
11590 1.4899390196149678 0.67065506052801849 5.0566550401819468 120 94 69 0.10205804546930712 10 13792 11 13792 9 15378
11591 1.8313401489975472 4.1031627663577792 1.7323667096927808 54 35 22 1.0320473610505905 13 14994 9 15382 16 10500 2 1520 1 1520 3 1724
11592 1.6593146564812749 2.0619934710679662 3.6879452985592969 113 85 63 0.24424973323908158 10 5098 11 5098 9 15385
11593 1.6515561046098366 1.6806988757422678 4.0637566207665472 82 62 51 0.54639010963712142 10 13942 11 13942 9 15395
11594 1.6755522391902578 1.8412667642981322 3.9158110272935507 58 41 33 0.11089834349935872 10 13977 11 13977 9 15402
11595 1.8438298366739949 3.1999646686786254 2.5990561592281867 84 66 58 0.038020561610109915 10 15319 11 15319 9 15418 4 2570
11596 1.8928461269288541 3.6285936877785723 2.1927798769367524 77 57 50 0.61519678910195141 10 15402 11 15402 9 15425 18 8297
11597 1.6439498172439753 0.71940987906606868 5.0071634685879021 60 43 34 0.15246288864969929 10 11180 11 11180 9 15438
11598 1.7860195826691694 1.786963828684516 3.9462110913361488 54 40 34 0.52501010810743509 10 15159 11 15159 9 15442
11599 1.9133919310504763 3.2387349368374765 2.5731834532708397 69 45 40 1.307132857579971 10 15988 11 15988 9 15443 16 10259 17 10532 18 10790 4 2516 12 4194 5 2717 6 2717 7 2663 8 2663
11600 1.9889225434135425 4.0308961509766759 1.8084273114686129 86 67 58 0.3617763602724185 13 14382 9 15444 17 2140
11601 1.9373347692217329 3.3930857936050915 2.4219255470494807 150 119 91 0.064876803321206114 14 13803 15 13803 9 15446
11602 1.9375229298576444 3.3923816427295335 2.4234312193850625 150 119 91 1.1357726747821149 12 12137 14 13804 15 13804 9 15447 2 9325 1 9325 4 9750 5 2592 6 2592
11603 1.9194813713795951 3.0772085339419259 2.7224338641372459 135 100 72 0.7299318892365394 10 15334 11 15334 9 15452 17 8176 4 12910 5 7444 6 7444
11604 1.9028441349410314 2.8870152401260905 2.9022084461709343 120 89 60 0.39539097235084181 10 15286 11 15286 9 15453
11605 1.9396954886492981 3.0987486695368913 2.7058176224129555 68 46 33 1.7695633652865397 10 15348 11 15348 13 14061 9 15457 7 6741 8 6741
11606 1.9396954886492981 3.0987486695368913 2.7058176224129555 68 46 33 1.7695633652865397 10 15349 11 15349 13 14062 9 15458 7 6742 8 6742
11607 1.738995645603342 0.84469153720813583 4.8837842090661781 54 35 29 0.043990796213674299 10 13882 11 13882 9 15463
11608 1.991623598947021 3.4385438698275399 2.3817542262647802 76 54 43 0.56172006716413803 10 15409 11 15409 9 15465
11609 1.9826454165632967 3.2424627647084634 2.5713552788209735 58 31 20 1.5828548050988422 14 14873 15 14873 9 15468 16 10255 17 10522 18 10777 4 2510
11610 1.7776034645373218 0.91803234365605091 4.8110913845383925 121 91 63 0.6209677720773793 10 13896 11 13896 9 15474
11611 2.0519380150505389 3.6144311237088047 2.2096754179279481 128 98 70 0.68832930991571506 10 15444 11 15444 9 15478 7 2441 8 2441
11612 2.0114691556243565 2.7311753994855845 3.0656737328675558 73 51 38 0.18287389553455977 10 15311 11 15311 9 15492
11613 2.0114691556243565 2.7311753994855845 3.0656737328675558 73 51 38 0.18287389553455977 10 15312 11 15312 9 15493
11614 2.0804073592438463 3.4397337121378042 2.3795850995854186 46 29 22 0.59646024715284574 10 15437 11 15437 9 15495 16 1561 17 8226 18 1726
11615 1.9403212039322337 1.8868831523910901 3.8786293093750146 27 10 3 1.126541599676997 10 14074 11 14074 12 2275 9 15497 3 11403
11616 1.8747525043775637 1.2386128113051038 4.5232488174792662 114 87 61 0.34501540778022705 10 13967 11 13967 9 15500
11617 1.8687473960252821 0.99104528592647578 4.7506733268532608 82 64 54 0.33675026509366096 10 13929 11 13929 9 15506
11618 2.141092852641036 3.8015682503940198 2.0274700767943763 94 74 65 0.90044966258363868 14 15068 15 15068 9 15507 16 8019
11619 2.0434556416235816 2.6635293961411595 3.1284549652983418 87 63 51 1.1097115111303109 14 13506 15 13506 9 15508 16 1145 3 3379
11620 1.9031466124624381 0.94247736210320976 4.7917648035885927 67 50 42 0.28179911925878409 10 11367 11 11367 9 15512
11621 1.9149149712628146 0.96263627875785018 4.7733027603297407 129 99 66 0.29611830003760353 10 13943 11 13943 9 15514
11622 1.9149149712628146 0.96263627875785018 4.7733027603297407 129 99 66 0.29611830003760353 10 13944 11 13944 9 15515
11623 2.1138461549936283 2.6022075696620171 3.1840290971662624 87 67 57 0.082890915928783629 10 15337 11 15337 9 15520
11624 2.1138461549936283 2.6022075696620171 3.1840290971662624 87 67 57 0.082890915928783629 10 15336 11 15336 9 15521
11625 1.9658341249243967 1.0251778746905287 4.7106300137547485 126 100 75 0.51125790557571882 10 13969 11 13969 9 15522
11626 1.9658341249243967 1.0251778746905287 4.7106300137547485 126 100 75 0.51125790557571882 10 13968 11 13968 9 15523
11627 2.1120729636028255 1.8994872447265803 3.8689295675365094 46 31 24 0.46453847153090955 10 14137 11 14137 9 15534 3 13898 4 13443
11628 -4.3129251111274911 4.4975677181632667 1.2866890974063974 109 83 56 0.095246566497850196 10 15513 11 15513 9 15540
11629 -4.0336756135832532 3.9496574522416674 1.7659490018982287 159 120 87 0.16841528665535185 10 15515 11 15515 9 15547
11630 -3.9900437293490039 3.8837944659799115 1.8034694227673482 159 123 91 0.16678098275288958 10 15514 11 15514 9 15548
11631 -3.9338278841112979 4.3057289662919693 1.4418433031083946 171 133 94 0.30260520778731187 10 15526 11 15526 9 15554
11632 -3.961116904773351 3.5434787507484633 2.1537717743423084 155 116 83 1.5663029624948426 10 9248 11 9248 9 15555
11633 -4.0337294402196884 3.1815669176054988 2.5137039587395003 98 74 48 0.27701411335092857 10 15497 11 15497 9 15556
11634 -4.0740477664318551 2.2409289155628245 3.42393716099695 159 123 87 0.1161746510759508 10 15479 11 15479 9 15564
11635 -3.8923384692172602 3.9758532495675283 1.7769819218367333 156 120 86 1.4077111838651368 10 15523 11 15523 9 15566 5 8952 6 8952 7 7949 8 7949
11636 -3.6940006979818416 5.0045290554772111 0.76001631219850219 102 77 50 0.50674965508641401 10 14621 11 14621 9 15569
11637 -3.6363852137029231 4.8507358090013772 0.87901364215367728 101 75 48 0.70057364235626862 10 15557 11 15557 9 15572
11638 -3.6815353565508691 4.7936482389473367 0.95525209755371399 123 90 59 0.89124276966742888 10 16112 11 16112 9 15573
11639 -3.9344568421762731 2.1858058591295362 3.4808447442477819 134 99 67 0.016856279802955638 10 15483 11 15483 9 15574
11640 -3.8252234371354925 3.2232022641812819 2.4965348566610315 135 101 66 0.71417704553914985 10 15512 11 15512 9 15575 7 7678 8 7678
11641 -3.6909450238641406 2.2818361956841877 3.4003019657865052 108 86 62 0.42203652647888751 10 15498 11 15498 9 15581
11642 -3.3758051357279797 3.6209727662803917 2.1040087218459753 155 121 87 0.042504449261112111 10 15547 11 15547 9 15587
11643 -3.2703451182366976 -0.15550067808744369 5.7747587510212268 67 54 36 0.95909928637696851 10 15474 11 15474 9 15606
11644 -2.7512289429876859 4.5360103682213513 1.2394524159143649 92 66 48 0.43162133397886998 10 15606 11 15606 9 15610
11645 -3.099034779377873 -0.31164979013148431 5.8592774437742641 181 169 149 0.47428292744323369 10 15475 11 15475 9 15613
11646 -2.5598953322921352 4.8139395366411017 0.9878070005193158 159 124 92 0.30577291573969712 10 16159 11 16159 9 15622
11648 -2.4014116944134773 4.8505485273359445 0.9678958458573369 144 106 70 0.18206095888376375 10 15634 11 15634 9 15635
11649 -2.3036620089803885 3.7571196629131545 1.9971386657627446 134 107 79 0.31996872364332868 10 15613 11 15613 9 15649
11650 -2.1391088984942317 4.832138498091533 0.9807718267264447 149 114 82 0.56167731521921171 10 15648 11 15648 9 15652
11651 -2.0333525241767658 4.9008338326199663 0.89742731670625064 126 91 59 0.3716566546587044 10 16179 11 16179 9 15654
11652 -2.1455603377120536 3.7378640792596478 2.0158124846856009 154 119 89 0.11278560891601404 10 15625 11 15625 9 15656
11653 -2.3863310470206494 0.34829775973707305 5.2884900286773311 56 37 20 0.12629255287269558 10 14585 11 14585 9 15660
11654 -1.9186091866394199 -0.10478226823623529 5.733473699874251 82 59 48 0.64529979077317945 10 14607 11 14607 9 15683
11655 -1.8861443732697483 -0.14609029722457262 5.7614465269781183 104 83 66 0.66542464586550409 10 14608 11 14608 9 15685
11657 -1.1642891768566086 4.6357061060043874 1.1646509435131269 130 93 64 0.064074332516946539 10 15703 11 15703 9 15704
11658 -1.459473259413905 0.56851338461873102 5.0825970150473889 134 101 68 0.68360613334416309 10 15595 11 15595 9 15711
11659 -1.1933236337735462 3.2829046827329411 2.4629873985699442 110 76 48 0.25131217444334114 10 15665 11 15665 9 15712
11660 -0.90025699869980769 4.9835504810898641 0.85098897800770901 71 48 32 0.360507496132219 10 16233 11 16233 9 15724
11661 -1.2888422284316103 -0.1466027022857804 5.7594276013561982 105 76 42 0.45500637522742277 10 14652 11 14652 9 15726
11662 -0.79292079370889901 4.941877597482998 0.88015688061082031 107 85 64 0.15554229787960572 10 15751 11 15751 9 15728 4 8975
11663 -0.72675044306513625 4.3744721909162525 1.4347801815847929 90 62 38 0.54816768243933001 10 16228 11 16228 9 15733
11664 -1.0351448566422861 0.0014847625515781006 5.6341571791237648 70 46 22 0.046857433012091949 10 14686 11 14686 9 15738
11665 -1.0351448566422861 0.0014847625515781006 5.6341571791237648 70 46 22 0.046857433012091949 10 14685 11 14685 9 15739
11666 -0.655342266778139 3.3290455268078465 2.43429673835612 87 54 23 1.7418420896315943 9 15742 17 13121
11667 -0.41995193153833754 4.3155710052503133 1.4818834260885982 94 69 48 0.13479319078281285 10 16242 11 16242 9 15752
11668 -0.72372123100366414 0.92019480454934166 4.7456546958788515 119 89 68 0.24533708722967049 10 14740 11 14740 9 15755
11669 -0.10856426483142299 3.1767774915554434 2.5863949464544791 51 36 29 0.701297052916241 12 14423 9 15784 16 12774 17 13107
11670 0.0065295222255148909 3.6136302681616432 2.1793122772934175 131 95 69 0.85536050033825073 12 3046 9 15798 7 7266 8 7266
11671 0.20557099867768475 4.6172700168581313 1.2153288829700386 120 87 56 0.023188392715013439 10 15817 11 15817 9 15802
11672 0.20557099867768525 4.6172700168581313 1.215328882970039 120 87 56 0.023188392715092238 10 15818 11 15818 9 15803
11673 0.20156249801928894 4.3727343588225622 1.4451254165661664 75 52 38 1.1184425852399251 13 14359 9 15805 16 12483 17 12646 2 2641 1 2641
11674 -0.055241305149712761 1.3644975212152999 4.3481377793822702 125 91 64 0.34582722392567811 10 14830 11 14830 9 15808
11675 -0.10866713405665254 0.60336831612647912 5.0942052790250525 116 87 57 0.04344669789863561 10 14792 11 14792 9 15809
11676 0.036077488048577404 0.31314865321645324 5.3548205233740021 95 64 33 0.66320456237145275 10 14794 11 14794 9 15820
11678 0.96808511219201809 4.8310965688918666 1.0115712423866139 89 66 49 0.98409384750588669 10 16303 11 16303 9 15875 16 4534 17 4239 18 11124 19 8724
11679 0.60109112583911839 0.60913336398034035 5.1011079434774729 122 103 97 0.039927989173666203 10 14895 11 14895 9 15877
11681 0.81923605046029968 2.3356287305026706 3.4441643965538424 51 43 40 1.5792103059815048 10 15021 11 15021 9 15882
11682 1.0312052703693531 4.1402360436895345 1.6758862932667229 124 102 88 0.25191173864213212 10 16291 11 16291 9 15889
11683 0.83199001662798988 1.8356059089115546 3.9067586911071568 96 70 53 1.6566955464251882 10 15788 11 15788 9 15895 4 15620 5 8911 1 14642 2 14642 6 8911 7 8094 8 8094
11684 0.86347160909012954 2.0094729268666955 3.7412980242463805 84 59 44 0.24896333835037363 10 15792 11 15792 9 15897
11685 0.80458607846434893 1.3259834640886872 4.3956633028613936 53 42 40 0.26296826741607066 10 14968 11 14968 9 15899
11686 0.83184727603143638 1.612170927949323 4.1336496052686416 100 84 71 1.0694545394257666 10 14982 11 14982 9 15901
11687 0.82170533974807669 1.4350393130563954 4.3022233566457579 130 108 94 1.5240447209596171 10 15778 11 15778 9 15902
11688 1.1416014974478603 4.7192828397940927 1.1255710084095818 91 72 55 1.7855408157132877 10 16326 11 16326 9 15903 5 1214 6 1214 7 1326 8 1326
11689 0.81690200570875759 1.0375695441877726 4.6883184131566091 101 75 58 0.63502701035629328 10 13644 11 13644 9 15904
11690 0.91478988124859739 1.5415486078530514 4.1945822143618772 97 68 50 0.17078133001307227 10 14992 11 14992 9 15907
11691 1.0019948003102266 2.2359457468654838 3.5152814742372671 92 63 46 0.5803242696549169 10 15809 11 15809 9 15908
11692 1.093709076480252 2.9950031135974116 2.781240336531559 37 24 18 0.14994248801498908 10 15125 11 15125 9 15911
11693 1.2528324940416311 3.8915639833875182 1.9286903075927218 81 53 32 0.080636154096149382 10 15908 11 15908 9 15919
11694 1.1708157442178997 2.8276363659399264 2.9396883980592641 67 44 36 0.73124256571952684 10 15836 11 15836 9 15920
11695 1.1892102576142281 3.0564442690846509 2.7319165970760526 127 92 70 0.57889270467042109 14 15550 15 15550 9 15921 7 7366 8 7366
11696 1.0613977810591275 1.5142989879174558 4.2228205579977907 82 58 34 1.4328048651875325 10 15011 11 15011 9 15924 3 16118 4 15668 1 13877 2 13877
11697 0.98656913234897181 0.67009757693052185 5.0425693123297046 71 49 36 0.13212912898187754 10 13656 11 13656 9 15925
11698 1.1404782597223415 2.1054865770685511 3.6503023315114702 86 67 60 1.4851990663103616 10 15048 11 15048 9 15926 5 8347 6 8347
11699 1.1567366090456135 2.0582213724239233 3.7047079329607127 47 17 1 0.40186379482775791 10 15816 11 15816 9 15929
11700 1.1512541948159478 1.9199316830420758 3.8299199101482002 151 122 104 0.83170747722179938 10 15043 11 15043 9 15931 3 15278 4 15237 5 8391 4 15238 6 8391
11701 1.1066757094265414 1.4078777291459346 4.3230152013753544 45 25 16 0.78639382429588389 10 15012 11 15012 15 14512 9 15932 14 14512
